1749,1710,1696,1687,1677,1659,1655,1650,1641,1628,1620,1611,1599,1594,1578,1574,1566,1562,1558,1562,1562,1562,1562,1562,1562,1566,1566,1570,1570,1574,1582,1586,1590,1599,1611,1615,1620,1620,1620,1620,1615,1611,1607,1607,1603,1594,1594,1594,1590,1594,1599,1607,1615,1633,1637,1641,1646,1650,1655,1655,1659,1673,1682,1696,1729,1739,1759,1780,1806,1817,1822,1839,1839,1839,1833,1833,1839,1839,1839,1839,1839,1839,1839,1839,1839,1839,1833,1833,1833,1833,1833,1833,1833,1833,1833,1833,1828,1828,1822,1822,1822,1822,1817,1817,1817,1817,1822,1822,1822,1822,1828,1828,1828,1828,1833,1833,1833,1833,1833,1833,1839,1839,1839,1839,1839,1839,1839,1839,1839,1833,1833,1833,1833,1833,1833,1833,1833,1833,1833,1833,1839,1839,1844,1855,1861,1867,1884,1890,1901,1907,1913,1919,1925,1931,1937,1937,1937,1931,1925,1919,1907,1895,1890,1878,1867,1850,1839,1833,1817,1801,1795,1790,1790,1785,1785,1785,1785,1785,1780,1780,1785,1790,1790,1801,1806,1811,1822,1828,1833,1833,1833,1833,1833,1828,1822,1811,1806,1795,1775,1769,1759,1754,1749,1744,1749,1754,1764,1769,1775,0,0,0,0,0,0,0,0,0,0,0,0,0,0,0,0,0,0,0,0,0,0,0,0,0,0,0,0,0,0,0,484,484,484,484,483,482,481,0,480,479,479,480,0,481,481,0,481,481,0,0,475,472,469,469,468,468,468,468,468,469,469,470,470,470,470,470,470,470,469,468,468,467,465,463,461,460,460,459,458,458,458,457,456,456,456,456,456,0,0,0,0,0,0,0,686,686,686,685,684,683,682,681,679,679,678,678,678,677,678,678
1759,1720,1705,1691,1677,1655,1646,1641,1633,1624,1607,1599,1590,1582,1570,1566,1562,1558,1558,1562,1562,1562,1566,1566,1566,1566,1570,1574,1574,1578,1582,1586,1594,1594,1607,1615,1620,1620,1628,1624,1624,1620,1620,1615,1611,1603,1599,1599,1594,1599,1607,1611,1615,1637,1641,1646,1646,1655,1659,1659,1664,1677,1687,1701,1734,1749,1769,1790,1817,1828,1833,1850,1855,1855,1850,1855,1855,1850,1850,1850,1844,1844,1844,1844,1839,1839,1833,1833,1833,1833,1833,1833,1833,1833,1833,1833,1833,1828,1822,1822,1822,1822,1817,1817,1817,1817,1817,1817,1817,1817,1822,1822,1822,1822,1822,1828,1828,1828,1828,1833,1833,1833,1833,1839,1839,1839,1833,1833,1833,1833,1833,1828,1828,1828,1828,1828,1828,1833,1833,1833,1833,1839,1850,1855,1861,1872,1884,1895,1901,1913,1925,1931,1937,1944,1944,1950,1944,1937,1931,1919,1913,1895,1890,1878,1867,1839,1822,1811,1806,1801,1785,1780,1775,1775,1775,1775,1775,1775,1775,1780,1780,1785,1790,1801,1801,1811,1822,1828,1828,1828,1828,1828,1822,1817,1806,1801,1795,1785,1764,1759,1749,1744,1734,1739,1739,1749,1749,1759,1764,0,0,0,0,0,0,0,0,0,0,0,0,0,0,0,0,0,0,0,0,0,0,0,0,0,0,0,0,0,0,0,483,481,480,479,479,476,475,473,473,472,472,472,471,472,472,471,471,0,471,0,0,471,468,468,468,468,469,469,469,469,470,470,470,470,470,469,469,469,469,467,467,466,465,463,461,461,460,459,458,457,457,457,456,456,456,456,455,0,0,0,0,0,0,0,683,683,683,683,682,681,680,679,678,677,676,677,677,677,677,677
1764,1725,1710,1696,1677,1650,1641,1633,1624,1615,1594,1590,1582,1574,1566,1562,1562,1558,1558,1566,1566,1566,1566,1570,1570,1570,1574,1574,1578,1582,1586,1590,1594,1599,1611,1615,1620,1624,1633,1633,1628,1624,1624,1620,1615,1611,1607,1603,1607,1607,1615,1620,1624,1641,1646,1655,1659,1664,1668,1673,1677,1691,1701,1715,1739,1749,1769,1795,1828,1839,1850,1867,1872,1867,1861,1855,1861,1855,1850,1850,1844,1844,1844,1839,1839,1833,1833,1833,1833,1833,1833,1828,1828,1828,1828,1828,1828,1822,1822,1817,1817,1817,1811,1811,1811,1811,1806,1806,1806,1811,1811,1817,1817,1817,1817,1822,1822,1822,1822,1828,1828,1828,1828,1833,1833,1833,1833,1833,1828,1828,1828,1828,1822,1822,1822,1822,1828,1828,1828,1833,1839,1839,1850,1855,1861,1872,1890,1895,1913,1919,1931,1937,1944,1944,1950,1950,1944,1937,1931,1925,1913,1890,1884,1872,1855,1822,1811,1801,1795,1785,1775,1769,1769,1769,1764,1764,1764,1764,1764,1764,1769,1775,1780,1790,1795,1806,1811,1817,1822,1817,1817,1811,1806,1801,1790,1780,1769,1769,1754,1744,1744,1739,1729,1729,1734,1739,1739,1749,0,0,0,0,0,0,0,0,0,0,0,0,0,0,0,0,0,0,0,0,0,0,0,0,0,0,0,0,0,481,481,481,480,479,478,477,476,473,471,470,469,468,468,468,468,468,468,467,467,468,467,467,0,467,468,468,468,469,469,469,469,470,469,470,470,470,469,469,469,468,468,467,466,465,464,462,461,461,460,459,458,458,458,457,456,456,456,455,455,0,0,0,0,0,0,0,681,680,680,680,678,677,676,676,676,675,675,676,676,676,676,676
1769,1725,1710,1691,1677,1646,1637,1624,1615,1599,1578,1570,1562,1558,1554,1554,1554,1558,1558,1566,1566,1570,1574,1574,1578,1578,1578,1582,1586,1586,1590,1594,1603,1607,1620,1624,1628,1628,1637,1641,1637,1637,1633,1633,1628,1620,1615,1615,1615,1615,1628,1628,1637,1655,1659,1659,1664,1673,1677,1682,1687,1710,1720,1729,1754,1764,1785,1806,1828,1833,1844,1855,1861,1861,1855,1850,1855,1850,1844,1844,1839,1839,1839,1833,1833,1833,1828,1828,1828,1828,1828,1822,1822,1822,1822,1822,1822,1817,1817,1811,1806,1806,1801,1801,1801,1801,1795,1790,1795,1795,1795,1795,1795,1795,1801,1811,1811,1811,1817,1822,1828,1828,1828,1833,1839,1839,1839,1839,1839,1839,1833,1828,1828,1822,1822,1822,1822,1828,1828,1833,1833,1833,1850,1861,1872,1872,1890,1901,1907,1919,1931,1931,1937,1937,1937,1944,1937,1931,1925,1913,1907,1884,1872,1861,1844,1828,1801,1790,1785,1775,1764,1764,1759,1764,1759,1759,1759,1759,1754,1754,1759,1759,1764,1775,1785,1795,1801,1806,1806,1806,1801,1769,1759,1754,1734,1729,1729,1725,1720,1720,1720,1720,1715,1715,1725,1729,1729,0,0,0,0,0,0,0,0,0,0,0,0,0,0,0,0,0,0,0,0,0,0,0,0,0,0,0,0,0,480,479,479,479,479,477,476,475,473,472,469,468,467,466,466,466,466,466,465,465,465,465,465,465,466,467,467,468,469,469,469,470,470,469,469,469,469,469,468,468,468,467,467,465,465,464,463,462,461,461,460,460,459,458,458,457,457,456,455,455,455,0,0,0,678,679,0,0,677,677,677,677,677,676,676,676,675,675,674,675,676,675,676,676
1764,1720,1701,1682,1664,1646,1620,1611,1599,1586,1570,1562,1554,1550,1550,1550,1554,1558,1562,1574,1578,1582,1582,1586,1590,1590,1594,1594,1594,1599,1603,1603,1611,1615,1624,1628,1633,1637,1641,1646,1641,1641,1641,1637,1633,1628,1624,1624,1624,1628,1633,1637,1650,1668,1677,1682,1687,1701,1705,1705,1715,1729,1739,1749,1769,1780,1795,1828,0,1839,1844,1850,1855,1850,1850,1844,1850,1844,1839,1833,1833,1828,1828,1828,1822,1822,1817,1817,1817,1817,1817,1811,1811,1811,1811,1811,1806,1806,1801,1801,1801,1801,1801,1795,1795,1795,1790,1790,1790,1790,1790,1790,1790,1790,1790,1801,1801,1811,1817,1822,1822,1822,1828,1833,1839,1844,1844,1839,1839,1839,1833,1828,1828,1822,1822,1822,1828,1828,1828,1833,1833,1833,1850,1861,1861,1878,1895,1895,1901,1907,1919,1925,1925,1931,1931,1925,1925,1919,1907,1895,1890,1867,1855,1844,1828,1811,1785,1780,1759,1754,1749,1749,1749,1749,1749,1749,1749,1749,1739,1734,1739,1739,1739,1744,1749,1754,1759,1764,1764,1764,1754,1744,1739,1729,1720,1715,1705,1705,1705,1705,1705,1710,1710,1705,0,0,0,0,0,0,0,0,0,0,0,0,0,0,0,0,0,0,0,0,0,0,0,0,0,0,0,0,0,0,478,478,478,478,478,478,476,475,474,473,471,469,467,466,465,465,464,464,464,464,465,464,464,464,464,464,465,466,467,468,469,469,469,470,470,469,468,468,467,467,466,465,465,464,464,463,462,462,462,461,461,460,460,460,459,459,459,458,457,457,0,0,0,0,0,0,681,680,679,679,676,676,676,676,676,676,675,675,675,674,674,674,676,676,676,674
1759,1715,1696,1677,1659,1641,1620,1607,1594,1586,1566,1562,1554,1550,1546,1554,1554,1558,1566,1578,1582,1586,1590,1594,1594,1594,1599,1599,1603,1607,1607,1611,1620,1620,1628,1628,1637,1641,1650,1646,1650,1650,1646,1646,1641,1637,1633,1633,1637,1646,1655,1664,1673,1691,1701,1710,1710,1715,1725,1729,1739,1744,1754,1764,1785,1801,1811,1822,1839,1839,1839,1844,1844,1844,1839,1839,1833,1839,1828,1828,1828,1822,1822,1817,1817,1817,1817,1811,1811,1811,1811,1806,1806,1806,1806,1801,1801,1801,1801,1801,1795,1795,1795,1795,1795,1790,1785,1785,1785,1780,1780,1785,1785,1785,1790,1795,1801,1806,1811,1822,1822,1822,1828,1833,1839,1839,1844,1844,1844,1844,1839,1833,1828,1828,1822,1828,1828,1828,1828,1828,1833,1833,1850,1855,1861,1872,1878,1872,1878,1878,1884,1884,1890,1890,1890,1895,1890,1884,1872,1867,1850,1828,1822,1811,1795,1780,1764,1759,1754,1749,1744,1744,1744,1744,1744,1744,1744,1739,1729,1729,1734,1729,1729,1729,1729,1734,1739,1739,1739,1739,1729,1725,1720,1710,1701,1696,1691,1691,1691,1691,1696,1696,1701,0,0,0,0,0,0,0,0,0,0,0,0,0,0,0,0,0,0,0,0,0,0,0,0,0,0,0,0,0,0,0,477,477,477,477,476,476,475,474,468,467,466,466,465,463,463,462,462,462,463,463,463,463,463,463,463,463,464,465,466,468,469,470,471,471,470,470,468,468,466,466,465,464,463,463,463,462,461,461,461,461,461,461,460,460,460,459,459,459,458,0,0,0,0,0,0,0,683,0,0,680,678,676,677,677,676,676,676,676,676,675,675,675,676,676,677,676
1749,1710,1691,1673,1655,1641,1615,1607,1594,1582,1566,1558,1558,1550,1550,1554,1554,1562,1570,1582,1586,1594,1603,1603,1607,1603,1607,1611,1611,1611,1615,1620,1624,1628,1633,1637,1641,1646,1650,1650,1650,1655,1655,1650,1655,1655,1659,1659,1664,1677,1687,1696,1705,1715,1744,1749,1754,1754,1764,1759,1769,1775,1780,1790,1806,1806,1817,1828,1839,1839,1833,1839,1839,1839,1833,1833,1833,1833,1828,1822,1822,1822,1817,1817,1817,1811,1811,1806,1806,1806,1806,1806,1806,1806,1801,1801,1795,1795,1795,1795,1795,1795,1790,1795,1790,1785,1780,1780,1775,1775,1775,1775,1780,1780,1785,1795,1801,1806,1811,1817,1822,1828,1828,1839,1844,1850,1850,1855,1855,1850,1844,1839,1839,1833,1828,1833,1828,1828,1828,1828,1833,1833,1833,1850,1855,1850,1861,1861,1861,1867,1872,1878,1884,1884,1884,1884,1884,1872,1861,1850,1839,1828,1811,1806,1785,1775,1759,1754,1749,1744,1739,1734,0,0,0,0,0,1729,1720,1720,1725,1720,1715,0,1715,1720,1720,1720,1720,1720,1710,1705,1701,1696,1691,1682,1677,1677,1677,1677,0,0,0,0,0,0,0,0,0,0,0,0,0,0,0,0,0,0,0,0,0,0,0,0,0,0,0,0,0,0,0,0,0,475,475,474,474,473,472,471,469,467,465,464,463,462,462,461,461,461,461,462,463,463,463,462,462,462,462,462,464,465,466,469,470,471,471,471,470,469,468,466,465,465,463,462,462,462,461,461,461,461,461,461,461,461,461,461,460,460,460,459,459,0,681,682,683,0,689,0,686,0,683,682,679,677,678,678,676,676,677,677,677,676,676,676,677,678,678,676
1744,1705,1691,1673,1655,1641,1611,1603,1594,1582,1570,1562,1558,1558,1554,1554,1562,1566,1574,1590,1594,1603,1611,1611,1615,1615,1615,1615,1620,1620,1624,1628,1633,1637,1641,1646,1650,1655,1664,1673,1677,1682,1687,1696,1701,1710,1720,1725,1734,1744,1749,1754,1759,1764,1764,1769,1769,1769,1775,1775,1780,1785,1795,1801,1811,1817,1822,1828,1839,1839,1833,1833,1833,1833,1828,1828,1828,1828,1822,1822,1817,1817,1811,1811,1811,1811,1806,1806,1806,1801,1801,1801,1801,1801,1795,1795,1795,1795,1795,1790,1790,1790,1790,1790,1785,1785,1780,1775,1775,1769,1769,1769,1769,1775,1775,0,0,0,0,0,1822,1828,1828,1844,1855,1861,1861,1867,1867,1867,1861,1855,1844,1844,1839,1833,1833,1828,0,0,0,0,0,0,0,1844,1844,1844,1844,1850,1861,1867,1872,1878,1878,1872,1872,1861,1844,1839,1828,1822,1806,1795,1780,1769,1749,1744,1739,1734,1729,1729,0,0,1725,1720,1720,1720,1715,1710,1710,1705,1701,1701,1701,1701,1701,1701,1701,1701,1696,1682,1677,1673,1668,1659,1659,1659,1659,1659,1673,1677,1682,0,0,0,0,0,0,0,0,0,0,0,0,0,0,0,0,0,0,0,0,0,0,0,0,0,0,0,0,0,0,473,473,472,472,471,469,467,465,463,462,460,459,458,458,458,458,458,458,458,460,460,460,461,461,462,462,461,463,465,467,469,471,471,471,471,470,469,468,465,464,463,462,461,461,460,461,461,461,461,461,461,462,462,461,461,461,461,460,460,679,679,681,681,683,687,689,688,687,0,683,682,679,677,677,677,676,676,679,679,679,679,678,679,681,683,683,681
1739,1701,1687,1668,1650,1637,1611,1603,1594,1586,1574,1566,1562,1562,1558,1562,1570,1574,1582,1603,1611,1620,1628,1628,1628,1628,1628,1628,1633,1633,1633,1633,1637,1641,1650,1655,1664,1682,1687,1687,1696,1705,1710,1720,1725,1734,1739,1749,1754,1764,1769,1775,1780,1780,1785,1785,1785,1785,1785,1790,1795,1801,1806,1806,1817,1822,1828,1828,1833,1828,1828,1828,1822,1822,1817,1817,1811,1811,1811,1811,1811,1811,1811,1811,1811,1806,1806,1806,1801,1801,1801,1801,1795,1795,1790,1790,1790,1790,1790,1790,1785,1785,1785,1785,1785,1780,1780,1775,1769,1769,1769,1769,1769,0,0,0,0,0,0,0,0,0,1833,1844,1855,1861,1872,1872,1872,1872,1867,1861,1855,1844,1844,0,0,0,0,0,0,0,0,0,0,0,1839,1839,1844,1844,1850,1855,1861,1861,1861,1861,1855,1844,1839,1828,1822,1817,1795,1785,1769,1759,1744,1744,1734,1729,1725,0,0,0,0,1715,1715,1715,1705,1696,1696,1691,1687,1682,1677,1677,1677,1677,1677,1677,1677,1673,1668,1664,1664,1659,1655,1655,1655,1655,1659,0,0,0,0,0,0,0,0,0,0,0,0,0,0,0,0,0,0,0,0,0,0,0,0,0,0,0,0,0,0,0,0,0,470,469,468,467,466,462,461,459,457,456,455,454,454,455,454,454,454,455,456,458,0,460,460,461,461,461,462,464,466,469,471,471,471,470,469,468,466,463,461,461,460,460,459,459,460,460,461,461,462,462,462,462,462,462,461,462,461,461,460,460,0,0,686,689,690,689,689,689,687,686,682,681,680,680,679,680,680,680,680,680,680,680,683,685,685,683
1734,1701,1687,1673,1650,1637,1615,1603,1594,1586,1574,1570,1566,1566,1562,1566,1570,1578,1586,1611,1620,1624,1633,1633,1637,1633,1633,1633,1637,1637,1637,1641,1650,1650,1664,1668,1677,1696,1701,1705,1710,1720,1725,1734,1739,1749,1754,1759,1775,1780,1785,1785,1790,1795,1795,1801,1795,1795,1801,1801,1801,1806,1811,1817,1822,1822,1822,1828,1822,1822,1817,1811,1811,1811,1806,1806,1806,1806,1806,1806,1806,1811,1806,1811,1811,1806,1806,1806,1806,1801,1801,1801,1795,1795,1790,1790,1790,1790,1785,1785,1785,1785,1780,1785,1785,1785,1780,1775,1769,1769,1764,0,0,0,0,0,0,0,0,0,0,0,1839,1850,1855,1867,1872,1878,1878,1878,1872,1867,1861,0,0,0,0,0,0,0,0,0,0,0,473,473,0,1839,1839,1839,481,1855,1850,1850,0,0,0,0,1828,0,1817,0,0,0,1764,1754,1739,1739,0,0,0,0,0,1701,1701,1701,1696,1696,1696,1691,1691,1687,1682,1673,1668,1668,1668,1668,1668,1673,1673,1668,1668,1664,1664,1659,1655,1655,1650,1655,1655,0,0,0,0,0,0,0,0,0,0,0,0,0,0,0,0,0,0,0,0,0,0,0,0,0,0,0,0,0,0,0,0,0,466,465,464,463,462,458,457,455,454,449,449,448,448,448,448,450,451,0,451,454,0,0,457,458,459,457,462,462,464,466,469,470,470,469,468,0,465,461,460,460,459,459,458,459,459,460,460,461,462,462,463,463,463,462,462,461,461,460,460,683,684,685,686,689,690,689,689,689,688,686,682,682,681,681,681,681,681,682,682,681,681,682,684,686,686,684
1739,1705,1691,1673,1659,1641,1620,1611,1599,1590,1578,1574,1570,1570,1566,1570,1574,1582,1590,1615,1624,1628,1637,1637,1637,1637,1641,1646,1646,1650,1655,1664,1673,1677,1687,1691,1696,1710,1720,1720,1729,1734,1744,1749,1754,1764,1764,1775,1785,1790,1795,1801,1806,1817,1817,1817,1817,1817,1817,1811,1817,1817,1817,1817,1817,1817,1817,1817,1811,1811,1806,1801,1801,1801,1801,1801,1801,1801,1801,1801,1801,1806,1806,1806,1806,1806,1806,1806,1806,1801,1801,1801,1801,1795,1790,1790,1785,1785,1785,1780,1780,1780,1780,1785,1785,1780,1780,1775,1769,0,0,0,0,0,0,0,0,0,0,0,0,0,0,0,1855,1872,0,1884,1878,0,0,0,0,0,0,0,0,0,0,0,474,474,473,473,473,474,476,478,478,480,482,482,482,0,0,0,0,0,0,0,0,0,0,0,0,1749,1739,1734,1729,0,0,0,0,0,0,0,1691,1691,1691,1687,1682,1682,1677,1668,1664,1664,1664,1664,1664,1668,1668,1668,1664,1664,1659,1655,1650,1655,1655,1655,0,0,0,0,0,0,0,0,0,0,0,0,0,0,0,0,0,0,0,0,0,0,0,0,0,0,0,0,0,0,0,0,0,0,0,458,457,457,455,453,450,449,448,447,446,446,445,446,446,445,445,446,446,446,0,0,0,0,0,454,457,460,0,463,466,467,468,467,465,464,463,461,458,458,458,457,457,458,459,459,460,462,463,463,464,463,463,462,462,461,460,460,460,684,685,686,686,689,689,689,689,689,688,687,683,683,683,682,682,682,682,683,683,683,683,683,686,688,688,686
1744,1710,1696,1677,1664,1650,1624,1615,1603,1599,1582,1582,1578,1574,1574,1578,1582,1590,1599,1624,1628,1637,1646,1650,1650,1650,1659,1659,1664,1668,1696,1705,1710,1725,1729,1739,1744,1754,1759,1754,1764,1764,1769,1769,1775,1780,1785,1790,1801,1806,1806,1811,1817,1817,1817,1817,1817,1817,1817,1817,1817,1811,1811,1811,1811,1811,1811,1806,1801,1801,1801,1795,1795,1790,1790,1785,1790,1790,1795,1795,1795,1801,1801,1806,1806,1806,1806,1806,1806,1806,1801,1801,1801,1795,1790,1790,1785,1785,1780,1780,1780,1780,1780,1780,1780,1785,1780,0,0,0,0,0,0,0,0,0,0,0,0,0,0,0,0,0,0,0,0,0,0,0,0,0,0,0,0,0,0,475,475,475,474,474,473,473,474,475,478,478,479,481,482,482,482,481,0,0,0,0,0,707,705,700,0,0,0,0,0,0,0,0,0,0,0,0,0,0,0,0,0,0,0,0,0,0,0,0,0,0,0,1664,1664,1664,1664,1659,1659,1659,1655,1655,1655,1659,1659,1664,1664,0,0,0,0,0,0,0,0,0,0,0,0,0,0,0,0,0,0,0,0,0,0,0,0,0,0,0,0,0,0,0,0,456,454,453,452,450,448,447,446,445,445,444,444,444,444,443,443,444,444,444,444,0,0,447,449,0,451,457,459,461,464,465,465,463,462,461,460,458,456,456,456,456,456,457,458,459,460,462,463,463,464,463,463,462,461,461,460,460,683,684,685,686,687,687,689,688,688,687,686,685,683,683,683,683,682,682,683,683,683,684,685,686,687,689,690,689
1754,1725,1705,1691,1673,1659,1646,1633,1624,1615,1603,1599,1594,1594,1594,1599,1599,1607,1615,1646,1655,1668,1677,1687,1691,1691,1701,1701,1701,1705,1715,1725,1734,1749,1749,1759,1764,1775,1775,1769,1775,1780,1780,1780,1780,1785,1790,1795,1801,1806,1806,1811,1817,1817,1817,1817,1817,1817,1817,1811,1811,1811,1811,1806,1806,1801,1801,1795,1795,1790,1785,1780,1780,1780,1780,1769,1769,1775,1775,1780,1785,1790,1795,1795,1801,1801,1806,1806,1806,1806,1806,1806,1806,1801,1795,1790,1790,1790,1785,1785,1785,1785,1780,0,0,0,0,0,0,0,0,0,0,0,0,0,0,0,0,0,0,0,0,0,0,0,0,0,0,0,0,0,0,0,0,475,475,475,475,475,475,474,473,474,474,475,478,478,480,481,482,482,482,482,0,0,0,708,708,708,705,701,0,684,677,670,0,0,0,0,0,0,0,0,0,0,0,0,0,0,0,0,0,631,634,637,647,655,0,0,0,1664,1664,1664,1659,1659,1659,1659,1659,1664,1664,1664,1668,0,0,0,0,0,0,0,0,0,0,0,0,0,0,0,0,0,0,0,0,0,0,0,0,0,0,0,0,0,0,0,0,0,453,452,451,450,449,446,445,445,444,443,443,443,443,442,442,442,442,442,443,443,444,445,446,448,449,454,456,458,460,460,454,454,451,450,450,449,449,449,450,451,452,455,457,459,460,462,463,464,464,463,463,462,461,460,460,0,684,684,684,685,685,685,686,686,686,686,685,683,681,682,682,681,681,682,682,683,683,684,684,686,687,690,690,690
1775,1749,1734,1715,1701,1682,1659,1646,1637,1628,1615,1611,1607,1607,1607,1611,1615,1624,1637,1668,1677,1687,1701,1705,1710,1715,1715,1720,1720,1729,1734,1739,1749,1764,1769,1775,1775,1790,1785,1785,1785,1785,1790,1785,1785,1790,1790,1795,1801,1801,1806,1801,1806,1806,1806,1806,1811,1811,1806,1801,1801,1801,1801,1790,1785,1785,1780,1775,1769,1764,1764,1759,1759,1759,1759,1759,1759,1759,1764,1769,1780,1780,1785,1790,1795,1795,1795,1806,1806,1806,1806,1811,1806,1806,1801,1795,1790,1790,1790,1780,0,0,0,0,0,0,0,0,0,0,0,0,0,0,0,0,0,0,0,0,0,0,0,0,0,0,0,0,0,0,0,476,475,475,475,475,475,475,475,474,474,474,474,474,475,476,478,480,480,481,482,483,483,482,702,705,705,705,705,705,705,700,690,684,678,671,664,660,657,0,0,0,0,0,0,0,0,0,0,0,0,0,627,632,636,640,651,658,665,676,679,683,686,686,686,1664,1659,1659,1659,1664,1664,1664,1668,0,0,0,0,0,0,0,0,0,0,0,0,0,0,0,0,0,0,0,0,0,0,0,0,0,0,0,0,0,0,0,0,0,453,452,451,450,448,447,446,445,444,443,443,443,442,442,442,442,442,442,442,442,443,443,444,445,446,447,449,450,450,450,449,448,448,447,447,446,446,446,448,449,450,451,456,458,460,462,463,464,464,463,463,462,461,460,0,0,0,683,0,685,684,684,683,683,683,0,681,680,680,680,681,681,681,682,682,683,683,683,685,686,686,690,690,690
1785,1759,1749,1729,1710,1696,1668,1659,1646,1641,1628,1624,1624,1620,1620,1624,1628,1637,1664,1677,1691,1701,1710,1720,1725,1725,1729,1729,1734,1739,1744,1754,1764,1775,1780,1785,1790,1795,1795,1790,1790,1785,1785,1780,1780,1775,1775,1780,1780,1785,1785,1790,1790,1795,1795,1795,1801,1801,1801,1795,1795,1795,1790,1780,1775,1775,1775,1759,1754,1749,1749,1744,1744,1744,1744,1744,1749,1749,1754,1759,1769,1769,1775,1780,1785,1790,1795,1795,1806,1806,1811,1811,1811,0,0,0,0,0,0,0,0,0,0,0,0,0,0,0,0,0,0,0,0,0,0,0,0,0,0,0,0,0,0,0,0,476,474,473,473,473,473,474,475,474,474,475,475,475,475,475,474,474,475,475,476,476,479,481,481,482,483,484,484,483,701,703,704,704,705,704,702,699,689,0,679,672,665,660,658,654,651,649,647,644,644,642,641,639,636,634,0,629,628,631,635,640,652,658,665,676,679,683,686,686,686,686,1659,1659,1664,1664,1668,1668,0,0,0,0,0,0,0,0,0,0,0,0,0,0,0,0,0,0,0,0,0,0,0,0,0,0,0,0,0,0,0,0,0,0,0,454,452,451,449,448,447,447,446,445,444,443,443,442,442,442,442,442,442,442,443,443,443,444,445,445,446,446,446,445,444,444,443,443,443,443,443,444,445,446,449,450,455,457,460,462,463,464,464,463,462,461,460,0,0,0,0,0,0,685,684,683,683,681,681,0,0,0,679,679,681,681,682,683,683,683,683,685,686,686,687,689,689,689
1795,1775,1759,1739,1725,1705,1677,1668,1659,1655,1641,1637,1633,1633,1633,1637,1641,1650,1673,1691,1701,1715,1725,1729,1734,1734,1739,1744,1744,1759,1764,1769,1780,1785,1790,1790,1795,1795,1790,1790,1785,1780,1780,1775,1769,1769,1769,1769,1769,1775,1775,1775,1780,1780,1780,1785,1790,1790,1790,1785,1785,1785,1780,1769,1769,1764,1759,1749,1744,1739,1734,1734,1734,1734,1734,1734,1734,1739,1739,1749,1759,1759,1764,1769,1775,1780,1780,1785,1790,1795,1795,0,0,0,0,0,0,0,0,0,0,0,0,0,0,0,0,0,0,0,0,0,0,0,0,0,0,0,0,0,0,0,475,475,475,474,473,473,473,473,473,473,474,474,474,475,475,475,475,475,475,475,476,476,477,478,481,482,482,483,484,484,484,484,484,701,702,703,703,702,701,698,688,0,0,671,666,660,656,653,650,648,646,644,642,642,640,639,636,634,0,0,629,632,636,640,652,658,665,675,679,683,685,685,686,683,1659,1659,1659,1664,1664,1664,0,0,0,0,0,0,0,0,0,0,0,0,0,0,0,0,0,0,0,0,0,0,0,0,0,0,0,0,0,0,0,0,0,459,458,457,456,455,452,450,449,448,447,445,445,444,443,442,442,442,442,442,442,442,442,442,442,443,443,444,443,443,443,443,441,441,441,441,441,441,441,442,443,445,447,449,455,458,460,463,464,465,464,463,462,461,461,0,0,0,0,0,0,0,680,679,678,676,676,676,676,0,677,677,679,680,681,682,683,683,686,687,687,687,688,0,0,687
1806,1780,1769,1749,1734,1710,1696,1687,1677,1668,1664,1659,1655,1655,1650,1655,1659,1664,1687,1696,1710,1715,1739,1744,1749,1749,1759,1759,1764,1769,1769,1775,1780,1785,1790,1790,1790,1790,1790,1790,1785,1780,1775,1769,1764,1764,1759,1759,1764,1764,1764,1764,1764,1775,1775,1775,1775,1775,1775,1775,1775,1775,1769,1764,1754,1754,1749,1739,1729,1729,1725,1725,1725,1725,1725,1720,1720,1720,1725,1729,1734,1734,1739,1744,1749,1749,1754,1754,1759,1780,0,0,0,0,0,0,0,0,0,0,0,0,0,0,0,0,0,0,0,0,0,0,0,0,0,0,0,0,0,0,0,0,475,475,474,474,473,472,472,472,472,473,473,473,474,475,476,476,475,475,475,475,476,476,478,479,481,482,482,483,484,485,485,485,485,699,699,699,699,699,697,695,692,681,676,671,665,660,655,653,649,646,644,642,642,641,640,638,636,636,0,632,634,636,640,644,655,661,665,674,676,679,683,683,683,683,0,0,681,0,0,0,0,0,0,0,0,0,0,0,0,0,0,0,0,0,0,0,0,0,0,0,0,0,0,0,0,0,0,0,0,0,0,0,0,461,460,459,458,457,454,452,450,450,448,446,446,445,444,443,443,443,442,442,442,442,442,442,442,442,442,442,442,441,441,440,440,439,439,439,439,439,440,440,441,444,447,450,456,460,462,465,465,465,464,463,462,461,0,0,0,0,0,0,0,0,0,0,0,675,675,674,675,0,0,678,679,680,681,683,685,686,686,0,0,0,0,0,0,0
1806,1785,1775,1759,1744,1715,1701,1691,1682,1673,1668,1664,1664,1659,1659,1659,1664,1673,1687,1701,1710,1715,1734,1744,1749,1754,1759,1764,1764,1769,1769,1775,1775,1785,1785,1790,1790,1790,1790,1790,1780,1780,1769,1769,1759,1759,1754,1754,1754,1754,1754,1744,1744,1749,1749,1749,1754,1754,1754,1754,1754,1754,1749,1749,1739,1739,1734,1729,1720,1720,1715,1715,1715,1715,1715,1715,1710,1715,1715,1720,1725,1725,1729,1734,1739,1739,1744,1744,1744,1744,1744,0,0,0,0,0,0,0,0,0,0,0,0,0,0,0,0,0,0,0,0,0,0,0,0,0,0,0,0,0,0,0,474,475,474,474,472,472,472,472,472,473,473,474,475,475,476,476,475,476,476,476,476,477,478,479,481,482,483,484,485,486,486,486,487,690,690,689,689,689,686,685,683,675,671,666,661,656,653,651,648,646,644,642,641,640,639,638,636,636,635,634,636,637,640,643,652,656,660,668,671,675,679,679,680,680,680,681,679,673,0,0,0,0,0,0,0,0,0,0,0,0,0,0,0,0,0,0,0,0,0,0,0,0,0,0,0,0,0,0,0,0,0,0,0,463,462,461,460,459,456,454,452,450,449,448,447,446,445,444,444,444,444,443,443,442,442,443,442,443,443,443,442,442,441,440,439,439,439,439,439,439,440,440,440,444,447,450,0,462,467,468,467,466,464,463,0,0,0,0,0,0,0,0,0,0,0,0,0,0,0,674,674,674,676,677,679,680,682,685,686,687,688,0,0,0,0,0,0,0
1806,1785,1769,1759,1739,1715,1701,1691,1687,1682,1673,1673,1668,1664,1664,1664,1668,1673,1687,1701,1705,1710,1734,1739,1749,1749,1759,1759,1764,1769,1769,1769,1769,1780,1780,1785,1785,1785,1785,1785,1775,1769,1764,1759,1749,1749,1744,1739,1739,1739,1734,1739,1739,1739,1739,1744,1744,1749,1744,1744,1744,1744,1744,1739,1734,1734,1734,1729,1720,1720,1715,1715,1715,1710,1715,1715,1710,1710,1715,1715,1715,1720,1720,1725,1734,1734,1734,1734,1734,1734,1734,0,0,0,0,0,0,0,0,0,0,0,0,0,0,0,0,0,0,0,0,0,0,0,0,0,0,0,0,0,0,0,473,473,473,471,471,471,471,471,471,472,473,474,475,476,476,476,476,476,476,477,478,478,479,480,482,483,483,485,486,487,488,488,489,685,684,683,683,682,681,678,676,671,666,662,658,653,651,649,646,644,642,641,640,639,638,637,636,636,636,635,636,636,638,641,648,652,655,661,664,666,669,669,668,669,668,665,663,658,651,0,0,0,0,0,0,0,0,0,0,0,0,0,0,0,0,0,0,0,0,0,0,0,0,0,0,0,0,0,0,0,0,0,0,465,463,463,462,459,457,455,454,452,450,450,449,449,448,447,447,447,446,445,445,445,445,445,444,444,444,443,442,442,441,440,440,439,439,439,439,439,440,440,441,444,0,0,0,466,468,469,468,467,465,0,0,0,0,0,0,0,0,0,0,0,0,0,0,0,0,674,674,674,676,677,680,682,683,686,688,689,689,690,692,692,690,688,0,0
1795,1780,1764,1744,1734,1720,1696,1691,1682,1677,1673,1668,1668,1668,1664,1664,1664,1668,1677,1687,1691,1701,1715,1725,1729,1739,1749,1754,1759,1764,1764,1764,1769,1769,1775,1775,1780,1780,1780,1780,1769,1764,1759,1754,1744,1744,1739,1739,1734,1729,1729,1734,1729,1734,1734,1734,1739,1739,1739,1739,1739,1739,1739,1734,1734,1734,1734,1729,1725,1720,1720,1720,1715,1715,1715,1715,1710,1710,1710,1710,1710,1710,1715,1715,1720,1720,1729,1725,1725,0,0,0,0,0,0,0,0,0,0,0,0,0,0,0,0,0,0,0,0,0,0,0,0,0,0,0,0,0,0,0,467,468,469,469,470,470,470,470,470,470,471,473,473,474,475,477,478,478,478,478,478,479,480,481,481,482,483,484,485,486,487,488,489,489,489,490,677,676,676,676,675,673,671,669,663,659,655,653,650,646,644,642,640,640,639,638,638,637,636,636,636,636,636,636,637,639,644,647,649,654,657,658,660,660,660,651,651,646,652,642,644,0,0,0,0,0,0,0,0,0,0,0,0,0,0,0,0,0,0,0,0,0,0,0,0,0,0,0,0,0,0,0,0,0,0,466,465,465,463,461,460,458,456,454,452,451,450,450,449,448,448,448,447,446,446,446,446,445,445,445,444,443,443,442,441,441,440,440,439,439,440,440,0,0,441,443,447,0,457,462,469,470,0,468,0,0,0,0,0,0,0,0,0,0,0,0,0,0,0,0,0,0,675,676,677,678,682,683,684,688,689,690,691,693,0,0,691,0,0,0
1780,1759,1749,1734,1725,1715,1691,1687,1682,1673,1668,1668,1664,1664,1659,1659,1659,1664,1668,1677,1682,1687,1705,1715,1725,1729,1744,1749,1754,1759,1764,1764,1764,1764,1769,1769,1775,1775,1775,1775,1764,1759,1754,1749,1744,1739,1734,1734,1729,1725,1729,1725,1725,1725,1725,1729,1729,1734,1734,1729,1729,1734,1734,1734,1734,1734,1739,1739,1729,1729,1725,1725,1720,1720,1715,1715,1710,1710,1705,1705,1701,1701,1701,1701,1710,0,0,0,0,0,0,0,0,0,0,0,0,0,0,0,0,0,0,0,0,0,0,0,0,0,0,0,0,0,0,0,0,0,0,0,0,466,467,468,469,469,470,470,470,470,471,473,473,475,476,477,478,479,479,479,479,480,482,482,483,483,484,485,486,487,488,488,489,490,490,490,672,671,671,670,668,667,666,664,659,655,652,650,648,644,641,638,636,636,636,636,636,636,636,636,636,636,636,636,635,636,638,638,638,639,640,642,642,642,642,642,642,638,636,0,0,0,0,627,627,628,0,0,0,0,0,0,0,0,0,0,0,0,0,0,0,0,0,0,0,0,0,0,0,0,0,0,0,0,0,466,466,465,464,462,461,459,458,456,453,452,451,451,450,450,449,449,448,447,447,447,447,446,446,445,445,444,443,442,442,441,440,440,440,440,440,441,442,442,442,444,447,0,457,460,470,0,471,471,0,0,0,0,0,0,0,0,0,0,0,0,0,0,0,0,0,0,0,0,0,681,684,686,687,690,0,693,693,693,693,0,0,0,0,0
1769,1754,1744,1734,1720,1710,1691,1687,1682,1673,1668,1664,1659,1659,1659,1655,1655,1655,1659,1668,1673,1682,1696,1705,1715,1725,1739,1749,1754,1754,1759,1759,1759,1759,1764,1764,1764,1764,1764,1764,1759,1754,1749,1749,1739,1739,1734,1729,1725,1725,1725,1725,1725,1725,1725,1725,1729,1729,1725,1720,1720,1725,1725,1729,1729,1734,1739,1739,1739,1734,1734,1729,1725,1725,1720,1715,1710,1705,1705,1701,1701,1696,0,0,0,0,0,0,0,0,0,0,0,0,0,0,0,0,0,0,0,0,0,0,0,0,0,0,0,0,0,0,0,0,0,0,0,0,0,0,464,465,466,467,468,469,470,470,471,471,471,473,475,476,478,478,479,479,480,480,481,481,483,484,484,484,485,486,486,487,488,489,489,490,491,491,491,660,660,659,658,658,657,656,652,650,646,644,642,638,637,635,634,634,634,635,636,637,637,638,638,638,638,637,636,635,634,634,633,632,632,634,633,633,633,633,632,632,629,627,627,625,624,625,626,627,629,0,0,0,0,0,0,0,0,0,0,0,0,0,0,0,0,0,0,0,0,0,0,0,0,0,0,0,0,0,0,0,0,463,0,460,459,457,455,454,453,452,451,450,450,450,449,448,448,448,447,447,446,445,445,444,443,442,442,442,441,441,442,442,442,443,443,443,443,445,447,449,0,0,0,0,0,0,0,0,0,0,0,0,0,0,0,0,0,0,0,0,0,0,0,0,0,0,685,686,687,688,689,691,693,693,693,693,0,0,0,0,0,0
1764,1749,1739,1729,1720,1710,1696,1687,1682,1677,1668,1664,1659,1659,1655,1655,1655,1655,1655,1659,1668,1673,1691,1701,1710,1715,1729,1734,1739,1744,1749,1749,1749,1749,1749,1749,1749,1754,1754,1749,1749,1744,1744,1739,1734,1734,1734,1729,1729,1725,1725,1729,1729,1725,1725,1725,1725,1725,1725,1720,1720,1725,1725,1725,1729,1734,1739,1744,1744,1739,1739,1739,1734,1725,1720,1715,1710,1705,1705,1701,1701,0,0,0,0,0,0,0,0,0,0,0,0,0,0,0,0,0,0,0,0,0,0,0,0,0,0,0,0,0,0,0,0,0,0,0,0,0,0,463,464,465,466,467,468,469,470,471,472,472,473,475,476,477,479,479,480,480,481,481,481,482,484,485,485,485,486,486,487,488,489,490,491,491,491,491,491,655,655,655,655,654,653,653,651,647,644,642,640,637,635,634,633,633,633,634,636,636,638,638,639,639,638,637,635,634,632,631,629,627,626,627,626,626,626,626,625,624,622,621,621,621,622,623,625,627,629,0,0,0,0,0,0,0,0,0,0,0,0,0,0,0,0,0,0,0,0,0,454,0,455,433,0,0,0,0,0,0,0,465,463,461,460,458,457,456,455,455,454,453,452,451,451,450,450,449,449,448,447,447,446,445,445,444,444,443,443,443,443,443,443,444,444,444,444,445,447,448,0,455,0,0,0,0,0,0,0,0,0,0,0,0,0,0,0,0,0,0,0,0,0,0,0,0,689,689,689,690,690,693,693,693,693,693,691,691,690,690,0,0
1754,1754,1734,1729,1720,1715,1701,1691,1687,1682,1673,1668,1664,1659,1655,1655,1650,1650,1655,1659,1664,1668,1687,1691,1701,1710,1725,1729,1734,1739,1744,1744,1744,1744,1744,1744,1744,1744,1744,1744,1739,1739,1739,1739,1734,1734,1734,1734,1729,1729,1729,1729,1729,1729,1729,1725,1725,1725,1725,1720,1715,1720,1720,1725,1725,1734,1744,1744,1749,1749,1749,1744,1734,1729,1720,1720,1710,1710,1705,1705,0,0,0,0,0,0,0,0,0,0,0,0,0,0,0,0,0,0,0,0,0,0,0,0,0,0,0,0,0,0,0,0,0,0,0,0,0,463,463,463,463,464,465,466,468,469,470,472,473,474,475,478,478,479,480,480,481,481,482,482,482,483,486,486,486,486,487,487,488,489,490,491,491,491,491,491,492,652,652,652,652,652,652,651,650,646,644,642,640,636,634,633,632,632,634,634,636,636,638,638,639,639,638,637,634,634,629,627,625,623,621,621,620,620,619,614,614,613,613,613,615,617,618,621,623,625,627,631,0,0,0,0,0,0,0,0,0,0,0,0,0,0,0,0,0,0,0,456,455,457,457,0,0,0,0,0,0,0,470,467,465,463,461,460,458,457,457,456,455,454,0,0,0,0,450,450,450,449,0,0,0,446,445,445,445,444,444,444,444,444,444,444,445,444,444,445,446,447,449,451,0,0,0,0,0,0,0,0,0,0,0,0,0,0,0,0,0,0,0,0,0,0,0,0,694,0,692,692,692,693,693,692,691,690,689,689,689,0,0,0
1749,1744,1739,1734,1729,1720,1715,1710,1701,1696,1682,1677,1677,1673,1664,1664,1659,1659,1659,1664,1668,1673,1687,1691,1701,1705,1720,1725,1729,1734,1734,1739,1739,1734,1739,1739,1739,1739,1739,1739,1739,1734,1734,1734,1734,1734,1734,1734,1729,1734,1734,1734,1734,1729,1729,1729,1729,1729,1725,1720,1715,1720,1720,1725,1725,1734,1744,1744,1749,1749,1749,1749,1739,1734,0,1725,0,0,0,0,0,0,0,0,0,0,0,0,0,0,0,0,0,0,0,0,0,0,0,0,0,0,0,0,0,0,0,0,0,0,0,0,0,0,0,466,465,465,464,463,463,464,465,466,468,469,470,473,474,475,476,478,479,480,480,481,481,481,482,482,483,484,486,486,486,486,487,488,489,489,490,491,491,492,492,491,492,649,650,650,651,651,651,651,649,646,644,641,640,636,634,634,633,632,633,634,635,636,638,638,638,638,637,636,632,631,625,622,620,617,615,613,612,612,612,611,610,610,610,611,613,615,616,618,621,623,626,0,0,0,0,0,0,0,0,0,0,0,0,0,0,0,0,0,0,0,456,456,456,457,459,461,0,0,0,478,476,473,470,468,466,464,463,460,459,458,457,457,456,455,0,0,0,0,450,450,450,449,0,0,0,446,446,445,445,445,445,445,0,445,445,445,445,445,445,445,445,445,444,0,0,0,0,0,0,0,0,0,0,0,0,0,0,0,0,0,0,0,0,0,0,698,697,697,696,695,694,693,693,692,691,691,689,689,687,687,687,0,0,0
1749,1744,1739,1734,1734,1729,1720,1715,1710,1705,1696,1687,1687,1682,1677,1673,1673,1673,1673,1673,1677,1682,1691,1696,1701,1705,1720,1720,1725,1725,1729,1729,1734,1734,1734,1734,1734,1734,1734,1734,1734,1734,1734,1734,1734,1734,1739,1739,1734,1734,1734,1734,1734,1734,1729,1729,1729,1725,1725,1720,1720,1720,1720,1725,1729,1739,1744,1754,1754,1759,1759,1754,0,0,0,0,0,0,0,0,0,0,0,0,0,0,0,0,0,0,0,0,0,0,0,0,0,0,0,0,0,0,0,0,0,0,0,0,0,0,0,0,0,470,468,467,466,465,465,464,464,464,465,466,468,469,471,473,475,476,477,479,479,480,481,481,481,481,482,482,483,484,486,486,487,487,488,489,490,491,491,492,492,492,492,492,492,648,649,649,650,651,651,651,649,646,644,641,640,636,634,634,634,633,634,634,634,636,636,637,637,638,636,634,631,629,622,620,617,614,612,610,609,609,609,609,609,609,609,609,612,613,615,617,618,620,623,631,640,646,0,0,0,0,0,0,0,0,0,0,0,0,0,0,0,0,457,457,457,459,462,464,0,0,476,479,478,475,471,469,467,466,464,462,461,459,459,458,456,455,454,453,452,451,450,450,450,450,449,449,448,446,446,446,446,445,446,446,447,447,446,446,446,446,446,446,446,445,445,0,0,0,0,0,0,0,0,0,0,0,0,0,0,0,0,0,0,0,0,0,0,699,698,697,696,695,694,694,692,691,690,689,689,687,0,0,0,0,0,0
1749,1744,1744,1739,1739,1739,1729,1725,1720,1715,1705,1701,1696,1691,1691,1687,1687,1687,1682,1687,1687,1687,1696,1701,1705,1710,1715,1715,1720,1720,1729,1729,1729,1729,1729,1729,1729,1729,1729,1729,1729,1729,1729,1734,1734,1734,1739,1734,1734,1734,1734,1739,1734,1734,1729,1729,1729,1725,1725,1725,1725,1725,1725,1725,1729,0,0,0,0,0,0,0,0,0,0,0,0,0,0,0,0,0,0,0,0,0,0,0,0,0,0,0,0,0,0,0,0,0,0,0,0,0,0,0,0,0,484,482,0,0,477,0,0,0,468,467,466,466,465,465,465,465,466,467,469,469,471,474,475,476,477,479,479,480,481,481,481,481,482,482,483,484,485,486,487,487,489,489,490,491,492,493,493,493,492,492,492,647,649,650,651,652,652,651,651,647,645,643,641,638,636,635,634,634,634,634,634,635,635,636,636,636,634,632,629,627,620,617,614,612,609,608,607,607,607,607,607,607,607,608,611,612,613,615,617,618,622,631,638,646,666,675,0,0,0,0,0,0,0,0,0,0,0,0,0,0,459,459,461,462,466,468,474,480,480,480,478,476,471,469,468,466,465,462,462,461,460,460,458,456,455,454,452,451,451,451,450,450,450,449,449,448,448,448,448,447,447,448,447,447,447,447,447,447,447,446,447,446,0,0,0,0,0,0,0,0,0,0,0,0,0,0,0,0,0,0,0,0,0,0,700,700,700,699,697,696,695,694,692,690,689,688,688,686,686,0,685,0,0,0
1744,1749,1744,1744,1744,1744,1739,1734,1729,1725,1715,1710,1710,1705,1705,1701,1696,1696,1696,1696,1696,1701,1705,1705,1715,1715,1715,1715,1720,1720,1725,1729,1729,1729,1729,1729,1729,1729,1725,1729,1729,1729,1729,1734,1734,1734,1734,1734,1734,1739,1739,1739,1734,1734,1729,1729,1725,1725,0,0,0,0,0,0,0,0,0,0,0,0,0,0,0,0,0,0,0,0,0,0,0,0,0,0,0,0,0,0,0,0,0,0,0,0,0,0,0,0,0,0,476,478,479,484,481,481,478,477,475,475,474,471,469,468,468,467,467,466,466,466,466,467,467,468,470,471,472,474,475,476,477,479,479,480,480,480,480,480,481,481,482,483,484,485,486,487,488,489,490,491,492,492,493,493,492,492,492,646,649,649,651,652,652,652,651,648,646,644,643,640,638,637,636,635,634,634,634,634,634,634,634,634,632,630,627,623,620,615,612,609,607,606,606,606,606,604,604,605,605,606,609,610,610,611,612,613,616,627,636,644,667,677,683,685,0,0,0,0,0,0,0,0,0,0,0,0,0,0,0,471,475,479,481,482,482,482,480,478,473,471,470,468,467,465,463,462,461,460,459,0,456,455,453,453,452,452,451,450,450,450,450,449,449,449,449,448,448,448,448,448,447,447,447,447,448,448,448,448,0,0,0,0,0,0,0,0,0,0,0,0,0,0,0,0,0,0,0,0,0,0,700,700,699,698,696,694,693,692,689,687,686,686,685,683,682,679,0,0,0,0
1744,1744,1744,1744,1744,1744,1744,1739,1734,1734,1734,1729,1729,1729,1729,1729,1725,1725,1725,1720,1720,1720,1720,1720,1715,1715,1715,1715,1715,1715,1720,1725,1729,1734,1729,1729,1729,1729,1729,1725,1725,1729,1729,1729,1729,1734,1734,1734,1734,1739,1734,1739,1729,1729,0,0,0,0,0,0,0,0,0,0,0,0,0,0,0,0,0,0,0,0,0,0,0,0,0,0,0,0,0,0,0,0,0,0,0,0,0,0,0,0,0,458,462,465,0,472,474,476,477,479,479,479,476,475,474,473,472,471,468,468,468,467,467,467,467,467,468,468,468,469,471,471,472,474,475,476,477,478,479,479,479,479,479,480,481,481,482,482,484,485,485,486,488,489,489,491,491,492,492,493,493,492,493,647,649,650,651,652,652,652,651,649,647,645,644,641,640,639,637,636,634,634,633,632,631,630,629,628,625,623,620,617,614,609,607,605,604,603,602,603,603,603,603,603,604,605,607,609,609,609,610,611,614,619,0,643,668,679,684,687,687,0,0,0,0,0,0,0,0,0,0,0,0,0,0,475,0,483,483,484,484,483,481,479,475,473,471,470,469,466,465,463,462,462,0,0,0,456,454,454,453,452,451,451,451,450,450,450,450,450,450,449,449,449,449,448,448,448,448,448,449,449,449,449,0,0,0,0,454,0,0,454,0,0,0,0,0,0,0,0,0,0,0,0,0,0,700,699,698,0,694,692,690,689,688,685,685,683,683,679,677,0,0,0,0,0
1739,1739,1739,1739,1739,1739,1739,1734,1734,1739,1734,1739,1739,1739,1744,1744,1739,1734,1734,1734,1729,1725,1725,1720,1720,1715,1715,1715,1710,1710,1720,1725,1729,1729,1729,1729,1729,1729,1729,1725,1729,1729,1729,1729,1729,1734,1734,1734,1734,1734,1739,1734,0,0,0,0,0,0,0,0,0,0,0,0,0,0,0,0,0,0,0,0,0,0,0,0,0,0,0,0,0,0,0,0,0,0,0,0,0,0,0,0,0,457,0,0,462,0,0,469,472,473,475,476,477,476,475,473,472,472,471,469,468,467,467,467,467,467,467,468,468,468,468,469,471,471,472,474,475,476,476,478,479,479,479,479,479,479,479,481,481,482,483,484,485,486,487,488,489,490,491,491,492,493,492,492,492,647,649,649,651,651,651,651,651,649,648,646,646,643,643,642,640,638,636,635,633,632,629,629,627,625,622,619,616,614,611,607,605,603,602,601,601,601,601,601,602,603,603,604,604,607,607,608,609,609,612,615,0,642,667,679,686,687,689,0,0,0,0,0,0,0,0,0,0,0,0,0,479,481,486,486,487,486,486,0,0,0,475,474,472,471,470,467,466,465,464,463,0,0,459,457,455,455,454,453,452,452,0,451,451,450,450,450,450,450,450,450,449,449,0,0,450,450,450,451,451,452,0,0,0,0,0,0,0,0,0,0,0,0,0,0,0,0,0,0,0,0,0,0,700,699,697,0,695,0,0,0,0,0,0,0,679,676,0,0,0,0,0,0
1734,1734,1734,1734,1734,1734,1729,1734,1734,1734,1739,1739,1744,1749,1754,1754,1754,1749,1749,1744,1744,1734,1729,1725,1720,1710,1705,1701,1696,1696,1701,1705,1710,1715,1725,1725,1725,1729,1729,1729,1729,1729,1729,1729,1729,1729,1734,0,0,0,0,0,0,0,0,0,0,0,0,0,0,0,0,0,0,0,0,0,0,0,0,0,0,0,0,0,0,0,0,0,0,0,0,0,0,0,0,0,0,0,0,0,0,455,458,459,460,463,465,467,0,0,473,473,474,474,473,472,470,470,469,468,467,466,466,466,467,467,467,468,468,468,469,469,471,471,472,473,474,475,475,477,477,477,477,478,478,478,479,480,481,481,483,484,484,485,487,488,489,490,490,491,491,492,492,492,492,648,649,649,650,650,0,0,0,649,648,646,647,646,644,643,642,639,637,635,633,632,628,626,624,622,620,615,613,610,609,605,603,601,600,600,600,600,600,600,601,601,602,603,604,606,606,606,607,607,609,613,0,651,665,677,686,689,689,689,0,0,0,0,0,0,0,0,0,0,0,0,488,485,489,489,489,488,487,486,484,481,476,475,473,472,471,468,467,467,467,465,463,462,460,460,457,457,456,455,454,453,453,453,453,452,452,451,451,451,451,451,450,0,0,0,0,451,451,451,451,452,0,0,0,455,455,455,455,455,0,0,0,0,0,0,0,0,0,0,0,0,0,0,699,697,0,0,694,0,0,686,683,680,0,0,676,0,0,0,0,653,651,649
1725,1725,1720,1720,1720,1720,1720,1725,1729,1734,1739,1744,1749,1754,1764,1764,1764,1759,1754,1754,1749,1734,1729,1720,1715,1701,1691,1687,1687,1687,1687,1696,1701,1705,1715,1720,1725,1729,1729,1729,1729,1729,1725,0,0,0,0,0,0,0,0,0,0,0,0,0,0,0,0,0,0,0,0,0,0,0,0,0,0,0,0,0,0,0,0,0,0,0,0,0,0,0,0,0,0,0,0,0,0,0,0,453,454,455,458,459,461,462,464,463,463,465,466,466,466,466,465,465,463,463,463,463,463,464,464,464,465,466,466,467,468,468,469,469,471,471,472,473,474,474,475,476,476,476,476,478,478,478,479,480,481,481,483,484,485,485,487,487,488,489,490,490,491,492,492,492,492,647,648,649,649,649,649,649,648,648,647,647,647,646,645,644,643,640,638,636,634,632,627,625,622,620,617,612,610,608,606,604,601,600,599,599,599,599,599,599,599,600,600,601,601,603,604,604,604,604,607,609,620,0,0,674,686,688,689,689,689,0,0,0,0,0,0,0,0,0,0,0,496,497,497,496,493,490,488,486,484,481,476,475,474,473,473,470,469,468,467,466,464,463,462,461,459,458,457,456,455,454,454,454,454,452,452,452,452,452,452,451,451,0,0,0,0,452,452,452,452,453,0,454,455,455,455,455,455,455,455,455,455,455,456,0,0,638,640,0,0,0,0,688,691,0,696,692,689,686,683,683,680,678,676,674,671,0,663,0,0,650,649,647
1720,1720,1715,1715,1715,1715,1720,1725,1729,1734,1739,1754,1759,1764,1775,1775,1775,1769,1764,1759,1749,1729,1720,1710,1705,1696,1682,1677,1673,1677,1673,1682,1687,1696,1710,1715,1720,1729,1729,0,0,0,0,0,0,0,0,0,0,0,0,0,0,0,0,0,0,0,0,0,0,0,0,0,0,0,0,0,0,0,0,0,0,0,0,0,0,0,0,0,0,0,0,0,0,0,442,0,447,448,451,453,454,455,457,457,458,459,460,460,460,462,462,462,462,462,461,462,461,461,461,461,462,463,463,464,465,466,466,467,468,468,469,470,471,471,472,473,474,474,475,476,476,476,476,477,478,478,479,480,481,482,483,484,485,485,487,487,488,488,489,490,490,492,492,492,493,646,646,646,647,647,647,648,647,647,647,646,646,646,646,645,644,641,639,637,634,632,626,624,620,617,613,607,605,603,602,600,599,598,598,598,598,598,598,598,598,599,600,600,601,602,603,603,603,604,606,608,617,626,0,680,688,690,691,689,689,688,0,0,0,0,0,0,0,0,0,0,0,501,500,499,495,491,488,486,483,481,476,475,474,474,472,471,470,469,468,466,465,464,463,462,460,459,458,457,456,456,455,455,455,454,454,453,453,452,453,452,452,0,0,454,452,452,452,452,453,453,454,455,455,455,456,456,455,455,455,455,455,456,0,638,637,640,642,643,0,0,0,682,0,0,0,689,688,683,682,681,679,676,675,672,668,0,661,0,0,650,649,649
1720,1715,1710,1710,1710,1710,1715,1725,1729,1734,1744,1754,1764,1769,1775,1780,1780,1775,1764,1759,1744,1720,1715,1705,1696,1687,1673,1668,1668,1668,1673,1677,1687,1691,1705,1710,1720,1725,0,0,0,0,0,0,0,0,0,0,0,0,0,0,0,0,0,0,0,0,0,0,0,0,0,0,0,0,0,0,0,0,0,0,0,0,0,0,0,0,0,0,0,0,0,440,441,442,443,446,447,448,452,453,454,455,0,457,458,457,458,458,458,459,459,459,459,459,459,459,459,459,459,460,461,462,463,463,465,466,467,467,468,469,469,470,471,472,472,473,474,474,475,476,476,476,476,477,478,478,479,481,481,482,484,484,485,486,487,487,488,488,489,490,490,492,492,492,493,644,644,644,644,644,645,646,646,646,647,647,647,647,648,648,647,646,644,642,639,636,629,625,620,616,612,606,603,601,600,600,598,597,597,597,597,597,597,597,598,598,599,599,600,601,601,601,601,603,605,606,613,622,637,0,686,689,691,689,689,688,688,0,0,0,0,0,0,0,0,0,0,0,502,501,495,491,488,486,483,481,477,476,475,475,473,472,470,470,469,467,466,465,465,463,461,460,459,458,457,456,456,455,455,455,454,454,454,454,454,454,453,453,455,455,455,454,454,454,454,454,454,455,455,455,456,456,456,456,456,455,456,455,456,640,641,642,644,645,651,0,0,0,0,686,688,0,686,683,682,680,678,676,674,671,668,665,660,652,650,650,650,649
1715,1710,1710,1710,1710,1710,1715,1725,1729,1739,1744,1759,1764,1769,1780,1780,1780,1775,1764,1754,1744,1720,1701,1691,1682,1673,1659,1659,1655,1659,1659,1664,1668,1677,1691,1696,0,0,0,0,0,0,0,0,0,0,0,0,0,0,0,0,0,0,0,0,0,0,0,0,0,0,0,0,0,0,0,0,0,0,0,0,0,0,0,0,439,439,440,440,0,440,440,440,442,442,443,446,447,448,451,452,453,454,455,456,456,457,457,457,457,456,457,457,457,457,457,458,458,459,459,460,461,462,463,463,465,466,467,467,468,469,470,471,472,472,473,474,475,475,475,475,476,476,477,478,478,479,480,482,482,483,484,485,485,486,487,488,489,489,490,490,491,492,492,493,493,644,644,644,644,644,644,645,645,646,647,648,649,649,649,649,650,648,646,644,642,638,630,626,622,617,613,609,603,601,600,599,597,597,597,597,596,596,597,597,597,598,598,598,599,600,600,600,601,603,604,605,606,617,631,0,683,688,690,689,689,688,688,688,0,0,0,0,0,0,0,0,0,0,0,503,496,0,0,486,482,480,477,476,475,475,473,472,471,471,469,468,467,467,466,464,0,0,460,459,458,457,457,457,456,456,456,455,455,455,0,455,455,455,456,456,455,455,455,454,454,454,454,455,455,456,456,456,456,456,456,456,456,455,455,640,642,644,645,646,651,0,0,0,0,681,686,0,685,682,680,680,678,676,0,671,0,0,659,651,651,650,649,649
1715,1715,1710,1710,1710,1715,1720,1725,1734,1739,1744,1759,1764,1769,1775,1775,1775,1759,1749,1739,1725,1710,1691,1677,1668,1664,1655,1655,1650,1655,1650,1655,0,0,0,0,0,0,0,0,0,0,0,0,0,0,0,0,0,0,0,0,0,0,0,0,0,0,0,0,0,0,0,0,0,0,0,0,0,0,0,0,0,0,0,437,438,439,439,440,440,440,440,440,442,443,444,446,447,450,451,452,0,454,0,455,455,455,455,454,454,454,454,454,454,454,455,456,457,458,459,460,461,462,463,463,464,466,467,468,469,470,471,473,473,474,474,475,476,476,476,477,477,478,478,479,480,481,483,484,484,485,486,487,487,487,489,489,489,490,490,491,491,493,493,493,494,642,642,643,644,644,644,644,645,646,648,649,649,649,650,651,651,650,649,646,644,640,632,628,623,618,613,609,603,601,600,598,597,597,596,596,596,596,596,596,596,597,597,597,598,598,598,598,599,601,604,605,606,612,623,0,676,685,688,687,687,686,685,683,0,0,0,0,0,0,0,0,0,0,0,0,0,0,0,484,481,479,476,476,475,475,473,473,472,471,470,468,467,467,466,464,0,0,461,460,459,458,458,458,457,457,457,456,456,456,0,0,456,456,456,456,456,455,455,454,455,454,455,455,456,456,456,457,456,456,456,455,455,455,455,642,643,645,646,650,653,655,659,668,673,675,679,682,683,681,679,679,678,676,672,669,666,663,658,651,651,650,650,649
1715,1715,1715,1720,1720,1720,1725,1729,1734,1739,1744,1754,1759,1764,1769,1764,1759,1754,1739,1725,1710,1701,1677,1668,1659,1650,1641,1646,0,0,0,0,0,0,0,0,0,0,0,0,0,0,0,0,0,0,0,0,0,0,0,0,0,0,0,0,0,0,0,0,0,0,0,0,0,0,0,0,0,0,0,0,0,434,435,435,437,438,439,439,440,440,440,441,442,443,443,446,447,448,450,451,452,452,453,453,453,454,454,453,453,453,453,453,453,454,455,455,456,458,459,460,461,463,464,464,466,467,468,469,471,472,473,473,475,475,475,476,477,477,477,478,478,478,479,480,481,482,483,484,485,486,487,487,488,488,489,490,490,491,491,492,492,493,494,494,494,0,642,642,643,644,644,644,644,646,649,649,649,651,651,651,652,651,650,649,646,642,634,630,625,619,615,607,604,601,600,599,597,596,596,596,595,595,596,596,596,596,597,597,597,598,597,598,598,601,603,605,607,612,620,0,658,682,686,686,686,685,684,683,679,0,0,0,0,0,0,0,0,0,0,0,0,0,0,0,0,0,477,476,475,475,473,473,472,471,470,468,468,467,467,465,463,462,461,460,459,459,459,458,0,0,457,457,457,457,457,457,457,457,457,457,456,455,455,455,455,454,455,456,456,457,458,458,457,457,457,456,456,455,456,456,644,646,650,651,0,655,658,666,668,674,676,0,680,680,679,679,0,676,673,669,666,662,658,652,651,651,651,650
1720,1720,1720,1725,1725,1725,1725,1729,1734,1734,1739,1749,1754,1754,1754,1754,1749,1744,1729,1715,1705,1691,1668,1664,1650,1641,1633,1637,1637,0,0,0,0,0,0,0,0,0,0,0,0,0,0,0,0,0,0,0,0,0,0,0,0,0,0,0,0,0,0,0,0,0,0,0,0,0,0,0,0,0,0,430,431,433,434,435,436,438,438,439,440,440,440,441,442,442,443,446,447,449,450,451,452,452,453,452,452,453,453,453,453,453,453,453,453,453,455,456,456,459,459,460,461,463,464,465,466,467,469,470,472,473,474,475,476,476,476,477,478,478,478,479,479,479,480,481,482,482,484,485,486,486,487,488,489,489,491,491,492,492,493,493,493,494,495,495,495,0,641,641,642,642,643,644,645,646,648,649,651,651,653,654,654,653,653,651,649,643,638,634,629,623,618,609,604,602,600,599,597,596,596,595,595,595,595,596,596,596,596,597,597,597,597,597,598,600,603,605,607,613,621,0,0,679,686,685,685,684,683,682,678,677,675,0,0,0,0,0,0,0,0,0,0,0,0,0,0,0,0,0,0,474,473,473,472,471,470,469,468,468,467,465,464,463,462,461,460,460,460,460,0,460,458,458,458,458,458,457,458,458,458,458,457,457,456,456,456,0,0,0,0,0,0,0,0,460,0,0,0,457,457,648,648,651,651,0,0,0,0,664,665,0,0,0,0,679,0,0,0,0,673,0,0,0,658,651,651,651,0,0
1720,1725,1725,1725,1725,1725,1725,1729,1729,1729,1734,1739,1744,1744,1744,1739,1739,1729,1720,1705,1687,1677,1659,1650,1646,1633,1633,1637,1637,1641,1646,0,0,0,0,0,0,0,0,0,0,0,0,0,0,0,0,0,0,0,0,0,0,0,0,0,0,0,0,0,0,0,0,0,0,0,0,0,0,0,0,430,431,433,434,435,435,437,438,438,439,440,440,441,442,442,444,446,0,448,450,451,451,451,452,452,452,452,0,453,453,454,454,454,454,454,455,456,457,459,460,461,462,463,465,465,467,468,469,471,473,473,475,476,476,476,477,478,478,479,479,479,480,480,481,482,482,483,485,485,486,486,488,489,489,490,493,494,494,495,495,495,496,497,497,497,497,0,641,641,642,642,642,644,644,646,649,651,652,653,655,655,655,655,654,653,651,644,640,636,630,624,619,609,605,603,600,599,597,596,596,595,595,595,596,595,596,596,596,596,596,597,597,597,597,600,603,605,607,615,622,0,0,678,683,683,683,683,682,680,675,674,673,671,0,0,0,0,0,0,0,0,0,0,0,0,0,0,0,0,476,475,475,0,473,472,471,470,469,469,468,466,465,464,464,463,462,462,462,461,461,461,461,460,460,459,459,459,459,459,459,459,458,458,457,457,457,0,0,0,0,0,462,0,0,0,0,0,0,458,458,0,0,0,653,653,0,657,0,663,663,666,669,0,676,677,0,0,0,676,673,670,667,0,660,655,0,652,0,651
1720,1725,1725,1720,1720,1715,1720,1720,1715,1715,1715,1720,1720,1720,1715,1710,1710,1705,1696,1687,1677,1668,1655,1650,1641,1633,1633,0,0,0,0,0,0,0,0,0,0,0,0,0,0,0,0,0,0,0,0,0,0,0,0,0,0,0,0,0,0,0,0,0,0,0,0,0,0,427,428,428,429,429,430,430,431,432,433,434,435,437,437,438,439,0,440,441,442,443,444,446,447,449,450,451,451,451,451,452,452,452,453,454,454,455,455,455,455,455,456,457,458,459,460,461,462,464,465,466,468,469,471,471,473,475,476,477,478,478,478,479,480,480,481,481,481,482,482,483,483,484,485,486,486,487,489,489,491,492,494,495,495,496,496,497,497,498,498,498,498,0,0,641,642,0,0,644,0,649,651,652,653,654,655,656,657,656,655,654,652,646,643,638,632,626,620,610,606,603,601,600,597,596,595,595,595,595,595,595,595,596,596,596,596,597,597,597,597,600,603,606,608,617,624,0,655,675,680,680,680,679,678,676,673,671,671,668,665,0,0,0,0,0,0,0,0,0,0,0,0,0,0,0,0,476,475,475,474,474,472,471,470,469,468,467,466,466,465,464,463,463,463,463,463,462,462,462,461,461,461,460,460,460,460,459,459,458,458,458,458,458,0,0,0,462,463,463,462,462,461,460,460,459,458,0,0,0,654,0,0,658,0,662,663,665,665,0,0,0,0,0,0,0,0,0,0,0,0,0,0,0,0,0
1720,1720,1720,1715,1710,1710,1710,1705,1705,1705,1701,1705,1705,1705,1701,1696,1696,1691,1682,1673,1668,1664,1655,1646,1646,1633,0,0,0,0,0,0,0,0,0,0,0,0,0,0,0,0,0,0,0,0,0,0,0,0,0,0,0,0,0,0,0,0,0,0,0,0,0,427,427,428,428,428,429,429,430,430,431,432,433,434,435,436,437,438,439,439,440,440,442,442,443,446,447,449,450,450,450,451,451,451,452,453,454,455,456,456,457,457,457,458,459,459,460,461,462,462,463,466,466,467,469,471,472,472,475,475,476,477,478,478,479,480,481,481,481,482,482,482,482,483,484,484,486,486,487,487,489,490,491,494,495,495,496,497,497,497,498,499,499,499,499,0,0,0,642,642,643,645,0,650,652,653,654,655,657,658,658,658,656,655,653,648,644,638,632,626,620,610,606,603,600,599,597,596,595,595,594,595,596,595,595,596,596,597,597,597,597,597,598,600,603,606,609,618,625,0,654,0,678,678,678,677,675,674,671,670,668,665,0,0,0,0,0,0,0,0,0,0,0,0,0,0,0,0,0,0,476,476,475,475,473,472,0,471,470,468,468,467,466,465,465,465,464,464,463,463,463,463,462,462,461,461,461,461,461,460,459,459,459,459,459,459,461,461,463,464,464,464,463,463,462,461,460,459,0,0,0,0,0,0,0,0,0,0,0,0,0,0,0,0,0,0,0,0,0,0,0,0,0,0,0,0,0,0
1715,1715,1715,1710,1705,1705,1701,1701,1701,1696,1691,1696,1696,1691,1687,1682,1682,1677,1668,1664,1659,1655,1650,0,0,0,0,0,0,0,0,0,0,0,0,0,0,0,0,0,0,0,0,0,0,0,0,0,0,0,0,0,0,0,0,0,0,0,0,0,0,426,427,427,427,428,428,429,429,429,430,431,431,433,434,435,435,436,437,437,438,439,440,440,441,442,443,446,447,448,450,450,450,450,451,452,452,453,455,455,456,456,457,458,458,459,460,460,461,462,462,463,464,466,467,468,470,471,472,473,475,475,476,477,478,479,479,480,481,481,481,482,482,482,483,484,484,484,486,486,487,487,489,491,492,494,495,496,497,497,498,498,499,499,500,501,501,501,0,0,0,0,0,0,0,651,653,654,655,656,659,660,660,659,658,657,655,649,644,639,632,625,619,613,605,601,600,599,597,596,595,595,595,595,596,595,596,597,597,597,597,598,598,598,598,601,604,607,610,619,627,0,654,662,675,675,674,674,671,671,668,666,665,663,0,0,0,0,0,0,0,0,0,0,0,0,0,0,0,0,0,0,478,478,477,476,475,475,474,472,471,469,469,468,467,467,466,465,465,465,465,465,465,464,464,463,463,462,462,462,462,461,461,461,0,460,460,461,0,464,465,465,465,465,465,464,463,462,461,461,0,0,0,0,0,0,0,0,0,0,0,0,0,0,0,0,0,0,0,0,0,0,0,0,0,0,0,0,0,0
1710,1705,1705,1701,1696,1696,1691,1691,1687,1682,1682,1682,1682,1682,1677,1673,1673,1668,1655,1650,1646,1646,1641,0,0,0,0,0,0,0,0,0,0,0,0,0,0,0,0,0,0,0,0,0,0,0,0,0,0,0,0,0,0,0,0,0,0,0,0,0,0,427,428,428,428,428,429,429,429,430,431,431,432,433,434,435,435,437,437,438,439,439,440,440,442,442,444,446,447,448,450,450,450,450,451,452,453,454,455,455,456,457,458,458,459,460,461,461,462,462,463,463,465,466,467,468,471,472,472,473,474,475,476,477,478,479,479,481,481,481,482,482,482,483,483,484,484,484,486,486,487,487,490,491,492,493,496,497,497,498,499,499,500,501,501,502,503,503,0,0,0,0,0,0,0,655,656,657,658,659,660,661,661,660,659,658,656,650,646,640,0,625,618,612,604,601,599,598,597,596,595,595,595,595,596,596,596,597,597,598,598,598,598,599,599,601,604,607,610,620,628,0,653,660,671,671,671,670,668,667,663,659,0,655,653,0,0,0,0,0,0,0,0,0,0,0,0,0,0,0,0,0,478,478,478,478,476,476,476,475,475,472,471,471,470,468,468,468,468,468,467,467,467,467,466,465,465,465,464,463,463,462,462,461,0,461,461,462,0,465,466,466,466,466,465,0,0,462,0,0,0,0,0,0,0,0,0,0,0,0,0,0,0,0,0,0,0,0,0,0,0,0,0,0,0,0,0,0,0,0
1691,1691,1691,1682,1682,1677,1677,1673,1668,1668,1664,1664,1664,1659,1659,1650,1650,1650,1650,1646,1646,1641,1637,0,0,0,0,0,0,0,0,0,0,0,0,0,0,0,0,0,0,0,0,0,0,0,0,0,0,0,0,0,0,0,0,0,0,0,0,428,427,428,428,428,428,428,429,429,430,430,431,431,432,434,435,435,436,437,437,438,438,439,440,441,442,443,444,0,0,0,449,450,450,450,451,452,453,454,455,456,456,457,458,459,459,461,461,462,462,463,463,464,465,467,468,469,471,472,473,473,475,475,476,477,478,479,479,481,481,482,482,483,483,484,484,484,485,485,486,487,487,488,491,492,493,495,496,497,497,498,499,499,500,501,502,503,503,503,504,0,0,0,0,652,654,655,658,658,659,660,662,662,662,661,660,659,657,651,646,640,632,623,616,610,602,600,598,598,596,596,595,595,595,596,596,596,596,597,598,598,598,599,599,600,600,602,604,607,611,622,629,645,651,657,665,666,666,664,663,661,660,656,0,652,650,0,0,0,0,0,0,0,0,0,0,0,0,0,0,0,0,0,482,481,480,480,478,477,477,476,476,474,473,471,471,470,469,469,469,468,468,468,468,468,467,466,466,466,465,465,464,463,463,462,0,462,0,463,0,465,0,466,466,0,465,0,0,463,0,0,0,0,0,0,0,0,0,0,0,0,0,0,0,0,0,0,0,0,0,0,0,0,0,0,0,0,0,0,0,0
1687,1682,1677,1673,1673,1673,1668,1668,1664,1664,1659,1659,1659,1655,1655,1650,1646,1646,1646,1641,1637,0,0,0,0,0,0,0,0,0,0,0,0,0,0,0,0,0,0,0,0,0,0,0,0,0,0,0,0,0,0,0,0,0,0,0,0,427,428,428,428,428,428,428,428,429,429,429,430,430,431,431,432,434,435,435,436,437,437,438,438,439,440,441,0,0,445,0,0,0,449,449,450,450,451,452,454,455,456,456,457,458,459,460,461,462,463,463,463,463,464,465,465,467,468,469,472,472,473,473,474,475,475,477,478,479,479,481,482,482,482,483,484,484,484,485,485,486,486,487,488,489,491,492,493,494,496,497,497,498,499,499,500,501,502,503,503,504,505,505,0,0,0,655,657,658,659,660,661,661,663,663,663,662,661,660,658,652,646,640,629,622,612,606,600,598,597,597,596,596,595,595,595,596,596,597,597,599,599,600,600,601,601,601,601,604,606,609,617,623,631,645,651,655,663,664,664,662,660,659,658,654,652,650,0,0,0,0,0,0,0,0,0,0,0,0,0,0,0,0,0,486,484,482,482,481,479,478,478,478,477,475,473,472,471,470,470,469,470,469,469,469,469,469,468,467,467,467,466,466,465,465,464,463,0,462,0,463,0,0,466,0,466,466,465,465,464,463,0,0,0,0,0,0,0,0,0,0,0,0,0,0,0,0,0,0,0,0,0,0,0,0,0,0,0,0,0,0,0,0
1673,1668,1668,1668,1664,1664,1664,1664,1659,1659,1655,1655,1655,1646,1646,1641,1641,1641,1641,1633,1637,0,0,0,0,0,0,0,0,0,0,0,0,0,0,0,0,0,0,0,0,0,0,0,0,0,0,0,0,0,0,0,0,0,0,0,0,427,428,428,428,428,429,429,429,429,430,430,430,430,431,432,433,435,436,437,438,438,438,439,441,442,443,0,0,447,447,448,448,448,449,449,450,450,450,452,454,455,456,457,457,458,460,461,461,463,463,463,463,464,464,465,466,468,469,470,472,472,473,473,474,474,475,476,478,479,479,481,482,482,483,484,484,484,484,485,486,486,487,487,488,489,491,492,493,494,496,496,497,497,498,499,500,501,502,503,504,505,505,506,0,0,0,0,658,659,660,661,663,663,666,665,665,664,663,662,661,654,648,0,627,617,609,604,599,598,597,597,596,596,595,595,595,596,597,597,598,600,600,601,601,601,602,601,601,604,607,611,618,625,632,645,650,653,660,661,661,660,658,658,657,653,652,0,649,0,0,0,0,0,0,0,0,0,0,0,0,0,0,0,0,487,486,0,0,0,481,480,479,479,477,476,475,473,472,471,471,471,471,471,470,470,469,469,469,468,468,468,467,467,466,466,466,466,0,0,0,0,0,0,0,0,0,0,0,0,0,0,0,0,0,0,0,0,0,0,0,0,0,0,0,0,0,0,0,0,0,0,0,0,0,0,0,0,0,0,0,0,0,0
1668,1668,1664,1664,1659,1664,1664,1659,1655,1655,1650,1650,1650,1641,1641,1637,1633,1637,1637,1628,0,0,0,0,0,0,0,0,0,0,0,0,0,0,0,0,0,0,0,0,0,0,0,0,0,0,0,0,0,0,0,0,0,0,425,426,427,428,428,429,429,429,430,430,430,431,431,431,431,431,431,433,434,435,437,438,439,439,439,440,442,0,0,0,0,448,448,449,448,448,448,449,450,450,450,452,454,455,456,457,458,458,460,461,461,463,463,463,464,464,465,465,466,468,468,470,471,472,473,473,473,473,475,475,478,478,479,481,482,482,483,484,484,484,485,485,486,486,487,488,489,489,491,493,493,494,496,497,497,497,498,499,499,501,502,503,503,505,505,506,0,0,0,0,0,0,665,666,666,666,667,667,666,665,663,663,661,655,648,0,0,0,0,0,599,598,597,597,596,596,596,596,596,596,597,598,598,600,601,601,601,603,603,602,601,606,609,612,621,627,633,646,650,653,658,659,660,658,658,657,656,653,651,650,649,0,0,0,0,0,0,0,0,0,0,0,497,497,494,493,491,488,487,0,0,0,483,483,482,482,0,0,0,0,475,473,473,0,0,472,472,472,471,471,471,470,470,469,469,469,468,468,467,467,0,0,0,0,0,0,0,0,0,0,0,0,0,0,0,0,0,0,0,0,0,0,0,0,0,0,0,0,0,0,0,0,0,0,0,0,0,0,0,0,0,0,0,0,0,0
1664,1659,1659,1655,1655,1655,1655,1655,1655,1650,1646,1646,1641,1641,1637,1633,0,0,0,0,0,0,0,0,0,0,0,0,0,0,0,0,0,0,0,0,0,0,0,0,0,0,0,0,0,0,0,0,0,0,0,0,0,0,423,426,427,428,429,429,429,430,430,430,431,431,431,431,431,431,432,433,434,436,437,439,440,440,440,0,0,0,0,0,448,449,449,448,448,448,448,449,449,450,450,452,453,455,457,457,458,459,460,461,462,463,463,463,464,464,465,465,466,468,468,469,471,472,472,472,473,473,474,475,478,479,479,481,482,483,484,484,485,485,485,486,486,487,488,489,490,491,492,493,494,495,496,497,497,497,498,498,499,500,501,502,503,504,505,505,506,0,0,0,0,669,669,668,668,668,668,668,667,665,664,663,662,656,0,0,0,614,606,602,599,598,598,597,597,596,596,596,596,596,597,598,598,601,601,603,603,603,603,603,603,607,610,614,623,629,635,646,649,651,654,655,655,655,655,654,655,651,651,652,0,0,0,0,0,0,0,0,0,0,0,0,497,497,495,493,493,491,490,488,487,486,485,484,484,483,482,0,0,0,0,0,0,0,0,473,473,472,472,471,471,471,471,471,471,470,469,469,468,0,0,0,0,0,0,0,0,0,0,0,0,0,0,0,0,0,0,0,0,0,0,0,0,0,0,0,0,0,0,0,0,0,0,0,0,0,0,0,0,0,0,0,0,0,0,0
1659,1659,1655,1655,1655,1655,1655,1655,0,0,0,0,0,0,0,0,0,0,0,0,0,0,0,0,0,0,0,0,0,0,0,0,0,0,0,0,0,0,0,0,0,0,0,0,0,0,0,416,417,0,0,0,0,0,425,0,427,428,429,429,429,430,430,431,431,431,431,431,431,431,432,434,435,437,439,440,442,444,444,0,0,447,447,448,448,448,448,448,448,448,448,448,449,450,450,452,454,455,458,459,460,461,462,463,463,463,464,464,464,465,465,466,466,467,468,469,471,471,472,472,473,473,474,476,478,479,479,482,482,483,484,484,485,485,486,486,487,487,489,489,490,491,493,494,494,495,496,497,496,497,497,498,499,500,501,501,502,504,505,505,506,0,0,0,0,0,0,670,670,668,669,668,668,665,664,663,660,653,0,0,0,614,606,602,600,598,598,598,597,596,596,596,596,597,598,598,600,601,603,603,604,604,604,604,603,607,611,616,626,632,638,647,651,651,653,655,657,658,671,669,667,665,662,658,651,0,0,0,0,0,0,0,0,0,0,0,497,497,496,495,493,492,491,490,489,487,486,486,485,484,484,0,0,0,0,0,0,0,0,474,474,473,473,473,472,472,472,472,472,471,470,471,470,0,0,0,0,0,0,0,0,0,0,0,0,0,0,0,0,0,0,0,0,0,0,0,0,0,0,0,0,0,0,0,0,0,0,0,0,0,0,0,0,0,0,0,0,0,0,0
1655,1659,1655,1655,1655,1659,1659,1655,0,0,0,0,0,0,0,0,0,0,0,0,0,0,0,0,0,0,0,0,0,0,0,0,0,0,0,0,0,0,0,0,0,0,0,416,416,416,416,416,416,416,416,416,418,420,425,426,428,428,429,430,430,431,431,431,431,431,432,432,432,435,437,439,0,442,443,443,445,445,445,446,446,447,447,448,448,448,448,448,448,448,448,448,449,450,450,453,455,0,0,460,461,461,462,463,463,464,464,464,465,465,465,466,467,468,468,469,470,471,471,472,473,473,475,476,478,479,480,482,483,484,484,485,485,486,486,487,487,488,489,490,491,492,493,494,495,495,496,496,496,497,497,497,498,499,500,501,501,503,504,505,505,0,0,673,672,672,672,671,670,670,670,669,668,665,663,661,659,651,642,0,0,0,608,604,601,601,600,599,598,597,597,597,597,597,598,599,600,602,603,603,604,604,604,604,604,607,612,616,626,632,638,648,655,651,654,662,667,686,686,683,679,674,0,0,0,0,0,0,0,0,0,0,0,0,0,0,499,498,497,495,495,493,492,491,490,488,488,487,487,486,484,483,482,481,481,481,478,476,477,476,475,475,475,474,474,473,473,473,472,472,472,472,473,473,0,0,0,0,0,0,0,0,0,0,0,0,0,0,0,0,0,0,0,0,0,0,0,0,0,0,0,0,0,0,0,0,0,0,635,635,634,0,629,626,625,0,0,0,0,0
1659,1659,1659,1655,1659,1659,0,0,0,0,0,0,0,0,0,0,0,0,0,0,0,0,0,0,0,0,0,0,0,0,0,0,0,0,0,0,0,0,0,0,0,0,0,416,416,416,416,416,416,416,416,416,0,0,425,427,428,429,430,431,431,432,432,432,433,434,435,435,436,438,439,0,0,444,445,445,446,446,446,446,447,447,447,447,447,448,447,448,448,448,448,449,449,450,451,453,455,0,460,461,462,463,463,463,464,465,465,465,465,466,466,466,467,467,468,469,470,471,471,472,473,474,475,476,478,479,480,482,483,484,484,485,486,486,486,487,488,489,490,491,492,493,494,495,495,496,497,497,497,497,497,497,498,499,499,500,501,503,504,504,505,0,0,673,673,673,673,672,671,671,670,669,668,664,662,660,658,654,640,0,623,0,609,606,602,601,600,600,599,598,598,597,597,597,598,599,600,602,603,604,604,605,604,604,604,609,612,617,627,632,640,656,664,656,669,0,0,0,0,0,0,0,0,0,0,0,0,0,0,0,0,0,0,0,0,0,500,499,498,497,496,494,493,492,491,490,489,489,488,487,485,484,484,484,482,481,480,479,478,478,477,478,477,476,476,476,475,475,475,474,474,474,475,475,0,474,0,476,0,0,0,0,0,0,0,0,0,0,0,0,0,0,0,0,0,0,0,0,0,0,0,0,0,0,0,0,0,636,636,636,635,634,631,628,626,0,0,0,0,0
1655,1659,1659,1659,0,0,0,0,0,0,0,0,0,0,0,0,0,0,0,0,0,0,0,0,0,0,0,0,0,0,0,0,0,0,0,0,0,0,0,0,0,0,0,415,416,416,416,416,416,416,417,416,418,0,0,0,430,430,431,432,0,0,0,0,436,0,0,0,439,0,0,0,0,446,446,447,447,446,446,446,0,446,446,447,447,447,447,448,448,448,448,449,449,450,451,454,456,457,460,462,462,463,463,463,464,465,465,465,465,466,466,467,467,468,468,469,469,471,471,472,474,475,476,477,479,480,481,483,484,484,485,486,487,487,487,489,489,490,491,492,493,494,495,496,496,497,497,497,497,497,498,498,499,499,500,501,501,503,504,505,505,0,672,673,672,672,672,672,671,670,669,668,667,663,661,659,656,653,640,632,624,0,611,607,603,602,601,601,599,599,598,598,598,598,598,600,600,602,603,604,605,606,605,605,605,609,613,617,629,637,649,673,682,0,725,743,744,738,727,724,0,0,0,0,0,0,0,0,0,0,0,0,0,0,0,0,504,503,502,500,0,497,496,495,494,493,491,491,489,488,486,485,485,484,482,482,481,479,479,478,479,479,479,478,478,477,476,476,475,475,475,475,475,475,0,475,0,476,0,0,0,0,0,0,0,0,0,0,0,0,0,0,0,0,0,0,0,0,0,0,0,0,0,0,0,0,0,636,635,635,634,633,631,629,626,622,617,614,612,611
0,0,0,0,0,0,0,0,0,0,0,0,0,0,0,0,0,0,0,0,0,0,0,0,0,0,0,0,0,0,0,0,0,0,0,0,410,0,0,410,412,0,0,0,415,416,416,416,416,417,417,417,0,0,0,0,430,431,432,433,434,0,0,0,0,0,0,0,440,442,443,444,446,447,447,447,447,446,446,445,445,445,445,445,446,446,446,448,448,449,449,449,449,450,451,454,456,458,461,462,462,463,463,463,464,465,465,466,466,467,467,467,468,469,469,469,470,471,472,473,475,476,476,478,480,481,481,483,484,485,486,487,487,488,489,489,490,491,492,493,494,495,496,497,497,497,497,497,497,498,498,499,499,500,500,501,502,503,504,505,506,0,672,672,671,671,671,671,671,668,668,667,665,662,660,657,654,651,640,633,627,620,613,609,605,604,603,602,601,600,599,598,598,598,599,600,601,602,603,604,605,606,606,606,607,610,613,617,0,0,0,0,732,735,746,748,747,745,742,740,0,0,0,0,0,0,0,0,0,0,0,0,0,0,0,508,506,506,504,502,500,499,498,498,497,494,493,491,490,489,486,485,485,484,484,482,481,480,480,479,479,480,480,479,479,478,478,477,476,476,476,476,477,477,0,476,476,477,476,0,0,0,0,0,0,0,0,0,0,0,0,0,0,0,0,0,0,0,0,0,0,0,0,0,0,0,636,636,636,636,635,634,631,630,629,624,618,617,0,613
0,0,0,0,0,0,0,0,0,0,0,0,0,0,0,0,0,0,0,0,0,0,0,0,0,0,0,0,0,0,0,0,0,0,0,0,410,410,410,410,411,0,0,0,415,416,416,416,416,417,417,417,0,0,0,432,433,0,434,435,0,437,438,0,0,0,441,441,444,445,446,447,448,448,448,447,447,446,446,445,445,445,445,445,445,446,446,447,449,449,449,449,450,450,452,455,456,458,461,462,462,463,463,463,464,465,465,466,466,467,468,468,468,469,469,470,471,472,472,473,475,476,477,478,480,481,482,484,484,485,486,487,488,488,490,490,491,492,493,494,495,495,497,497,497,497,498,498,498,499,499,499,500,501,501,502,503,504,505,506,506,0,669,669,669,668,668,668,668,668,667,665,665,661,658,655,653,650,640,0,0,625,620,615,609,608,606,605,603,602,601,600,600,600,600,600,601,603,604,606,607,608,609,609,609,611,613,616,0,0,0,729,731,737,750,751,752,752,752,752,750,0,0,0,0,0,0,0,0,0,0,0,0,0,0,509,508,507,506,504,502,501,501,500,498,496,495,493,491,490,487,486,486,485,484,483,482,481,480,481,480,481,481,480,480,479,479,478,478,478,478,478,478,479,0,478,478,478,0,478,0,0,0,0,0,0,0,0,0,0,0,0,0,0,0,0,0,0,0,0,0,0,0,0,0,0,0,636,636,637,636,635,632,631,629,627,0,620,0,0
0,0,0,0,0,0,0,0,0,0,0,0,0,0,0,0,0,0,0,0,0,0,0,0,0,0,0,0,0,0,0,0,410,410,410,410,410,410,410,411,411,412,413,414,415,417,417,417,418,418,418,418,0,0,429,432,434,435,436,0,0,439,439,440,440,441,441,442,444,445,446,447,447,448,447,447,447,446,446,445,445,444,444,444,445,446,446,447,449,449,450,450,450,451,0,454,456,458,461,462,463,463,463,463,463,465,466,466,467,468,468,469,469,469,470,470,471,472,473,474,476,477,478,479,481,481,482,484,485,486,487,488,489,489,491,491,492,493,494,495,495,496,497,497,498,498,499,499,499,500,501,501,501,503,503,504,505,506,507,508,0,0,667,668,668,667,668,667,667,667,666,665,664,660,658,655,652,649,642,637,632,627,623,619,613,610,609,607,605,604,603,601,601,600,601,601,601,604,606,608,610,610,610,611,612,612,613,615,0,0,730,735,739,744,749,750,751,751,751,0,0,0,0,0,0,0,0,0,0,0,0,0,0,0,512,510,510,509,507,506,504,503,503,502,500,497,496,494,493,490,488,488,487,487,486,485,484,483,482,482,482,483,483,483,483,0,0,481,481,481,481,481,481,480,0,479,479,0,0,480,0,0,0,0,0,0,0,0,0,0,0,0,0,0,0,0,0,0,0,0,0,0,0,0,0,0,0,0,638,638,638,637,634,633,632,629,626,625,0,0
0,0,0,0,0,0,0,0,0,0,0,0,0,0,0,0,0,0,0,0,0,0,0,0,0,0,0,0,0,0,0,409,410,410,410,411,411,411,411,411,412,413,413,414,415,417,417,418,418,419,419,419,421,0,427,433,435,435,436,437,437,438,438,439,439,440,441,441,442,444,446,446,447,447,447,447,447,446,446,445,444,444,444,444,445,446,447,449,449,449,450,450,450,451,452,455,456,457,460,461,462,462,462,462,463,465,465,466,467,468,468,469,469,470,470,471,472,472,474,475,476,478,479,481,482,482,483,485,486,487,488,489,490,491,493,493,494,495,495,496,497,497,497,498,499,499,499,499,500,501,501,502,503,504,505,506,506,508,508,508,510,0,0,0,666,666,665,666,666,665,665,664,663,660,657,654,652,649,642,638,634,630,625,619,617,614,612,610,607,606,605,604,602,602,601,602,602,606,609,610,612,614,615,615,615,613,613,613,742,742,743,743,745,748,747,746,746,744,743,740,0,0,0,0,0,0,0,0,0,0,0,0,0,0,515,513,513,512,511,510,508,507,506,505,501,499,498,0,494,491,489,489,489,488,486,486,484,484,483,483,484,484,484,484,484,484,484,483,482,482,482,482,482,482,0,481,0,481,482,0,0,0,0,0,0,0,0,0,0,0,0,0,0,0,0,0,0,0,0,0,0,0,0,0,0,0,0,0,638,639,0,637,634,634,632,631,631,0,629,631
0,0,0,0,0,0,0,0,0,0,0,0,0,0,0,0,0,0,0,0,0,0,0,0,0,0,0,0,0,0,408,409,410,410,410,410,411,411,411,412,412,412,413,413,415,0,417,418,419,420,420,420,0,0,0,434,434,435,436,436,437,437,437,438,439,440,439,440,440,442,443,444,446,446,446,446,446,446,445,445,444,444,444,444,445,446,447,448,449,450,450,450,451,451,452,455,456,457,0,461,461,461,462,462,462,463,465,466,467,468,469,469,470,471,471,472,472,473,474,475,477,478,479,481,482,483,484,486,486,487,488,490,491,491,493,494,494,495,496,497,497,497,498,498,499,499,499,500,501,502,503,503,504,505,506,506,507,509,509,509,511,511,511,0,665,665,665,664,665,664,663,663,662,659,657,655,652,650,644,640,637,633,629,623,620,618,616,613,610,609,607,606,604,603,603,604,604,608,611,613,616,619,620,620,0,0,750,749,749,748,747,746,745,745,745,743,742,742,739,736,0,0,0,0,0,0,0,0,0,0,0,0,0,0,516,514,514,513,512,511,510,508,507,506,502,500,498,496,495,491,490,490,490,489,487,486,485,484,484,484,484,485,485,485,485,485,484,484,483,483,483,482,482,482,0,482,0,0,0,0,0,0,0,0,0,0,0,0,0,0,0,0,0,0,0,0,0,0,0,0,0,0,0,0,0,0,0,0,0,0,640,0,637,0,634,632,631,631,633,634
0,0,0,0,0,0,0,0,0,0,0,0,0,0,0,0,0,0,401,401,402,0,0,403,403,403,0,0,0,0,408,409,409,410,410,411,411,411,411,412,412,412,413,414,415,417,418,419,421,421,421,422,0,0,0,0,433,434,435,435,436,436,436,437,438,438,438,439,439,440,441,442,444,445,445,446,446,446,445,445,444,445,445,445,446,446,447,448,449,450,450,450,451,451,452,454,455,457,0,460,461,461,461,462,462,463,465,466,467,468,469,469,470,471,472,472,473,473,474,475,477,478,479,480,482,483,484,486,487,488,489,490,491,492,493,494,495,495,496,497,497,497,498,498,499,499,500,500,501,502,503,504,504,506,507,508,508,509,510,510,511,511,512,0,661,661,661,661,663,663,663,662,662,659,658,655,653,651,648,645,643,640,637,631,629,625,623,619,617,616,613,612,608,607,606,606,606,609,612,615,618,626,631,636,0,750,749,749,749,747,746,745,745,744,743,741,739,738,731,725,0,0,0,0,0,0,0,0,0,0,0,0,0,0,0,516,515,515,514,512,511,510,509,508,503,501,499,497,495,493,491,491,491,489,488,487,486,486,485,485,485,485,486,486,486,486,485,485,484,484,484,483,483,483,0,0,0,0,0,0,0,0,0,0,0,0,0,0,0,0,0,0,0,0,0,0,0,0,0,0,0,0,0,0,0,0,0,0,0,640,640,638,636,634,633,632,631,631,632,634
0,0,0,0,0,0,0,0,0,0,0,0,0,0,398,399,0,0,402,402,403,403,403,403,403,403,404,405,406,407,408,409,409,410,0,411,411,411,412,412,413,413,414,415,415,418,419,420,423,423,423,424,0,0,0,431,433,434,435,435,435,435,436,436,437,437,438,438,439,440,441,442,444,444,445,445,446,446,445,445,445,445,445,445,446,447,447,448,449,450,450,451,451,452,452,454,455,456,459,459,460,461,461,461,462,462,464,465,466,468,469,469,470,472,472,472,473,474,475,475,477,478,479,480,482,483,484,486,487,488,489,491,491,492,493,494,495,495,496,497,497,497,498,498,499,499,500,501,502,503,504,505,506,508,508,509,509,511,511,511,511,512,512,0,0,0,0,660,661,662,662,661,661,658,658,656,654,652,649,646,644,642,637,634,632,630,627,623,622,620,618,615,611,610,609,608,607,610,613,617,627,636,644,0,0,749,749,748,748,747,745,745,743,742,740,738,734,730,720,714,705,689,684,678,0,0,0,0,0,0,0,0,0,0,0,518,518,517,516,514,513,511,510,509,505,0,0,0,0,495,494,493,493,492,490,0,0,0,487,487,487,487,487,487,487,487,486,486,485,485,486,486,486,486,486,0,0,0,0,0,0,0,0,0,0,0,0,0,0,0,0,0,0,0,0,0,0,0,0,0,0,0,0,0,0,0,0,0,0,0,0,0,636,634,634,632,631,631,632,634
0,0,0,0,0,0,0,0,0,0,0,0,0,398,399,399,400,401,402,403,404,404,404,404,404,404,405,406,407,408,409,410,410,410,411,412,413,413,413,414,414,415,415,415,416,418,0,423,423,424,424,425,0,0,0,431,432,433,434,435,435,435,435,436,436,437,437,438,439,440,441,442,443,444,445,445,446,446,446,445,445,445,445,446,447,447,448,448,449,450,450,451,451,452,452,454,455,456,458,459,460,460,461,461,462,462,464,465,466,468,469,469,471,472,472,472,473,474,475,475,477,478,479,480,482,483,484,486,487,488,489,490,491,492,493,494,495,495,496,497,497,497,498,499,499,499,501,501,502,504,505,506,506,508,509,509,510,511,511,512,512,512,512,0,0,0,0,0,0,660,660,660,660,658,657,655,654,652,649,647,645,644,639,638,636,633,631,627,625,623,622,619,615,613,612,610,610,613,617,622,634,643,0,0,0,750,749,749,748,746,743,738,733,730,721,716,710,705,700,696,691,0,0,673,670,0,0,0,0,0,0,0,0,0,0,522,522,521,521,518,517,515,513,511,506,504,0,0,498,496,495,494,494,492,0,0,0,0,488,488,488,489,488,488,487,487,487,486,486,486,486,0,0,0,0,0,0,0,0,0,0,0,0,0,0,0,0,0,0,0,0,0,0,0,0,0,0,0,0,0,0,0,0,0,0,0,0,0,0,0,0,0,0,0,631,631,631,632,634,635
0,0,0,0,0,0,0,0,0,0,0,398,399,399,399,400,401,402,403,404,404,404,404,404,404,405,405,407,407,408,409,410,410,411,412,413,414,415,414,415,415,415,416,416,417,418,0,0,424,425,425,425,427,428,0,430,431,432,433,434,434,434,435,435,436,436,437,438,439,440,441,442,442,443,444,444,445,445,445,446,446,446,446,446,447,447,448,449,449,450,450,451,452,452,453,455,456,457,458,459,460,460,461,461,462,462,464,465,467,468,469,470,471,472,472,473,474,474,475,476,477,478,479,480,482,483,484,486,487,488,489,490,491,492,493,494,495,495,496,497,497,497,498,499,499,499,501,501,502,504,505,506,506,508,509,510,510,511,511,512,512,512,512,0,0,0,0,0,0,658,659,659,658,657,657,655,653,653,649,648,646,644,642,640,638,636,634,631,630,627,625,620,619,617,616,619,620,0,0,0,0,0,0,0,733,747,749,748,748,743,739,733,726,721,0,0,0,0,0,0,679,676,673,671,668,0,0,0,0,0,0,0,0,0,525,525,524,524,523,520,518,516,514,512,507,505,502,501,499,498,496,496,495,493,492,491,0,0,489,489,489,489,489,489,488,488,487,487,486,486,486,0,0,0,0,0,0,0,0,0,0,0,0,0,0,0,0,0,0,0,0,0,0,0,0,0,0,0,0,0,0,0,0,0,0,0,0,0,0,0,0,0,0,0,0,629,629,632,0,0
0,0,0,0,0,0,0,0,0,0,0,398,399,399,400,400,401,403,404,404,404,404,404,404,0,405,405,407,407,408,410,410,410,411,413,414,415,416,416,416,416,416,416,417,418,419,420,424,425,425,425,426,427,428,428,429,430,431,433,433,433,434,434,435,435,436,437,438,439,440,441,441,442,443,443,444,444,445,445,445,446,446,446,446,448,448,448,449,449,450,450,451,452,453,454,455,456,457,458,459,460,460,461,461,462,463,465,466,467,468,469,470,471,472,472,473,474,475,475,476,478,478,480,481,483,484,484,486,487,487,488,490,491,491,493,494,495,495,497,497,497,497,498,499,499,500,501,501,502,504,505,506,506,508,509,509,510,511,511,511,512,512,513,513,0,0,0,0,657,656,657,657,657,657,655,654,653,652,650,649,648,646,645,645,644,643,641,640,638,636,634,631,629,627,626,0,0,0,0,0,0,0,0,0,731,0,0,748,746,741,734,725,719,0,0,0,0,0,681,678,676,671,670,668,667,0,0,0,0,0,0,0,0,0,527,526,526,525,524,521,519,517,514,513,508,506,503,502,501,499,497,496,495,494,493,492,491,490,490,490,490,490,490,489,489,489,488,487,487,486,487,488,487,0,0,0,0,0,0,0,0,0,0,0,0,0,0,0,0,0,0,0,0,0,0,0,0,0,0,0,0,0,0,0,0,0,0,0,0,0,0,0,0,0,0,627,627,0,0,632
0,0,0,0,0,0,0,0,0,0,0,399,399,400,400,400,402,403,404,404,404,405,404,404,0,0,405,407,408,408,410,410,410,411,414,415,416,417,418,418,418,418,419,419,420,420,421,0,0,426,426,426,427,428,428,429,430,431,433,433,434,434,435,435,436,436,437,439,440,440,441,441,442,442,443,443,443,444,445,445,445,446,446,447,448,448,449,449,450,450,450,452,452,454,454,456,457,457,459,459,460,460,461,462,462,463,465,466,467,469,470,471,471,472,473,473,474,475,475,476,478,479,480,481,483,484,484,486,486,487,487,489,490,491,493,493,494,495,496,497,497,498,499,499,500,500,501,502,503,504,505,506,507,508,509,510,510,511,511,512,513,513,514,514,0,0,0,0,0,655,654,655,655,654,653,651,651,650,648,648,647,647,646,646,646,645,643,642,641,640,639,635,634,632,632,630,0,0,0,638,661,697,0,0,0,0,0,0,0,0,0,0,0,700,693,687,682,674,671,671,669,660,660,660,659,660,0,0,0,0,0,0,0,0,528,527,527,526,525,523,520,518,515,513,509,506,504,503,502,501,500,499,498,497,495,495,494,493,492,492,491,492,491,490,490,490,489,489,489,488,489,0,489,0,0,0,0,0,0,0,0,0,0,0,0,0,0,0,0,0,0,0,0,0,640,0,0,0,0,0,0,0,0,0,0,0,0,0,0,0,0,0,0,0,0,0,0,628,0,0
0,0,0,0,0,0,0,0,0,399,399,399,400,400,401,402,403,404,404,405,405,405,406,406,0,406,407,408,408,409,410,411,411,0,0,0,419,420,420,420,420,420,420,421,421,421,422,423,425,426,426,426,427,427,428,429,430,0,433,434,434,434,435,435,436,437,437,439,440,440,441,441,441,442,442,442,443,444,444,445,445,446,446,447,448,448,449,449,450,450,450,452,453,454,455,456,457,458,459,459,460,460,462,462,463,464,466,466,467,469,470,471,471,472,473,473,475,475,476,477,479,480,481,482,483,484,484,486,486,487,487,489,490,491,492,493,494,495,497,497,498,498,499,499,500,501,502,502,503,505,506,506,507,508,509,510,510,511,512,512,514,514,514,0,0,0,0,0,0,654,653,654,653,652,651,649,648,648,646,646,646,647,647,647,647,647,646,645,644,643,641,639,638,637,637,636,637,638,644,658,671,0,0,0,0,0,0,710,0,0,0,0,0,676,669,664,660,657,655,656,657,656,658,657,658,658,657,0,0,0,0,0,0,0,531,530,529,528,527,523,521,519,517,514,510,508,506,505,504,503,0,0,499,498,497,496,495,494,493,493,493,493,491,491,491,491,490,490,489,489,490,491,490,489,0,0,0,0,0,0,0,0,0,0,0,0,0,0,0,0,0,0,0,0,641,640,0,0,0,0,0,0,0,0,0,0,0,0,0,0,0,0,0,0,0,0,0,627,0,0
0,0,0,0,0,0,0,0,400,400,400,400,401,401,402,402,404,405,405,405,405,406,406,406,407,407,408,408,409,409,411,0,413,0,0,421,423,423,423,422,422,422,422,422,422,423,423,424,425,426,426,426,427,428,428,429,0,0,0,434,434,435,435,435,436,436,437,438,439,440,440,440,441,441,442,442,442,443,444,444,446,446,447,447,448,449,449,449,450,450,451,453,454,455,455,457,458,459,460,460,461,461,463,463,465,465,467,468,468,470,471,471,472,473,473,474,475,476,477,478,479,480,481,482,483,484,484,486,486,487,487,489,490,491,493,493,495,495,497,497,498,499,500,500,501,501,502,503,503,505,506,506,507,508,509,510,511,511,512,513,514,514,515,515,0,0,0,0,0,0,653,649,649,647,646,644,644,645,646,646,647,647,649,649,649,649,648,646,646,645,644,643,643,642,643,649,0,0,0,0,0,0,0,0,0,0,0,0,0,0,0,0,0,668,663,660,657,655,655,655,655,653,652,649,648,646,0,0,0,0,0,0,0,0,532,531,530,529,526,523,521,520,517,514,510,508,507,506,505,0,0,0,0,0,499,498,497,0,0,494,493,493,493,492,492,492,491,491,491,491,491,0,491,489,0,0,0,0,0,0,0,0,0,0,0,0,0,0,0,0,0,0,0,0,0,641,0,0,642,0,0,0,0,0,0,0,0,0,0,0,0,0,0,0,0,0,0,0,0,0
0,0,0,0,0,0,0,0,0,400,400,401,401,402,403,403,404,405,405,405,406,406,407,407,407,408,408,409,409,410,411,413,415,420,0,422,424,424,424,423,423,423,423,423,423,423,423,424,425,426,426,427,428,428,428,429,430,432,434,434,435,435,435,435,436,436,437,438,438,0,0,440,440,441,441,442,442,443,444,445,446,447,447,448,449,449,450,450,450,451,452,453,454,455,456,457,458,459,460,461,462,462,464,465,465,467,468,468,469,470,471,472,472,473,474,474,476,477,478,478,480,481,482,482,484,484,484,486,486,486,487,489,490,491,493,494,495,496,497,498,499,499,500,501,501,503,503,503,504,506,506,507,508,508,509,510,511,512,512,513,515,515,516,516,0,0,0,0,0,0,0,0,647,645,644,644,644,644,644,646,648,648,649,651,651,650,650,649,649,649,649,649,650,649,650,650,649,0,0,0,0,0,0,0,0,0,0,0,0,0,0,0,0,661,659,658,657,655,651,0,649,646,645,638,636,0,0,0,0,0,0,0,0,0,533,532,531,530,528,523,521,519,517,0,0,509,508,507,506,506,0,0,503,501,500,499,500,0,0,0,495,495,493,493,493,493,492,492,492,492,492,493,492,490,0,0,0,0,0,0,0,0,0,0,0,0,0,0,0,0,0,0,0,0,0,641,642,0,644,0,0,0,0,0,0,0,0,0,0,0,0,0,0,0,0,0,0,0,0,0
0,0,0,0,0,0,0,0,400,400,400,400,401,0,0,403,404,405,405,405,405,406,407,407,407,408,408,409,409,409,411,0,0,424,425,424,426,425,425,423,423,423,423,423,423,423,423,424,425,0,0,428,429,429,430,431,432,433,435,435,435,435,436,436,436,436,437,437,438,439,439,440,440,441,442,442,443,444,444,445,447,447,448,448,449,449,450,450,451,452,452,454,455,456,456,458,459,460,461,462,462,463,465,465,466,468,468,469,469,471,471,472,472,474,474,475,476,477,478,479,481,481,482,482,484,484,485,486,486,487,487,489,490,491,492,494,495,496,497,499,499,500,501,502,503,504,505,506,506,507,508,508,508,510,510,511,512,513,514,514,516,517,518,518,0,0,0,0,0,0,0,0,0,0,642,642,642,642,644,644,646,647,649,650,650,650,650,649,649,649,650,650,651,650,651,651,649,649,0,649,0,0,0,0,0,0,0,0,0,0,0,0,0,661,660,658,656,652,646,644,0,638,636,0,0,0,0,617,0,0,0,0,0,0,534,533,531,530,528,523,521,518,516,514,511,510,509,508,507,507,506,506,505,503,503,502,502,0,0,0,497,496,495,495,495,495,495,494,495,494,494,493,493,0,0,0,0,0,0,0,0,0,0,0,0,0,0,0,0,0,0,0,0,0,642,642,0,0,644,644,644,646,649,0,0,0,0,0,0,0,0,0,0,0,0,0,0,0,0,0
0,0,0,0,0,0,0,0,0,400,400,400,401,401,0,403,404,405,405,405,406,406,407,408,409,409,410,410,411,411,0,0,0,425,425,425,426,426,425,424,423,423,423,423,423,423,424,424,426,0,0,429,429,430,431,432,433,434,435,436,436,436,436,436,436,436,437,437,438,0,439,440,440,441,442,443,443,444,445,445,447,447,448,449,450,450,450,0,452,453,453,455,456,456,457,458,459,460,461,462,463,464,465,466,467,468,469,469,470,471,472,472,473,474,475,475,477,478,479,480,481,482,482,483,484,484,485,486,487,487,488,490,491,492,494,495,496,497,498,499,500,501,502,503,504,505,506,506,507,508,508,509,509,510,511,511,512,514,514,515,517,518,518,519,519,519,520,520,520,0,0,0,0,0,0,640,641,641,642,643,645,646,648,649,649,649,650,649,649,650,650,650,651,651,651,651,649,651,654,655,658,660,686,0,0,0,0,0,679,664,674,673,672,664,663,658,0,0,0,632,0,0,0,0,618,617,615,615,613,0,0,0,0,545,535,533,532,530,528,522,520,518,517,515,512,511,510,509,508,507,507,506,505,504,503,503,503,502,0,499,0,498,497,497,497,497,497,496,495,495,495,0,493,0,0,0,0,0,0,0,0,0,0,0,0,0,0,0,0,0,0,0,0,0,643,643,0,0,645,645,646,646,649,0,655,0,0,0,660,0,0,0,0,0,0,0,0,0,0,0
0,0,0,0,0,0,0,0,0,400,400,400,401,401,0,403,404,404,404,405,405,406,407,409,409,0,0,0,0,0,0,0,0,425,425,426,426,426,425,424,423,423,423,423,423,423,424,425,426,428,428,430,430,431,432,433,433,434,436,436,436,436,436,436,436,436,437,437,438,439,440,440,440,0,0,444,444,445,445,446,447,448,448,449,450,450,451,0,0,455,455,457,457,458,458,460,460,461,463,464,465,466,467,467,468,469,470,470,471,472,472,473,473,475,475,476,478,479,480,481,482,482,483,483,484,485,485,486,487,488,489,491,491,493,495,495,496,497,499,499,500,501,503,504,505,506,507,508,508,509,509,510,510,511,511,512,514,514,515,516,518,518,519,519,520,520,520,520,520,520,519,519,639,0,638,638,638,640,641,641,644,645,646,647,647,648,648,648,649,649,650,650,651,651,651,671,673,670,660,673,691,0,0,703,700,0,696,0,686,682,680,678,676,668,665,0,0,0,0,0,622,620,620,618,615,615,614,613,613,0,0,0,0,540,535,532,531,530,527,522,520,519,517,515,512,511,511,509,508,507,507,506,505,504,504,504,503,502,501,500,500,499,499,498,498,499,498,497,497,496,495,0,494,0,0,0,0,0,0,0,0,0,0,0,0,0,0,0,0,0,0,0,0,0,0,643,0,0,647,647,648,649,651,655,657,658,660,0,0,660,659,657,0,0,0,0,0,0,0,0
396,0,0,397,0,0,0,0,0,400,400,400,401,401,401,402,404,404,404,405,406,407,407,410,410,411,0,0,0,0,0,0,424,425,425,425,425,425,425,423,423,423,423,423,423,424,424,425,427,428,429,430,431,431,432,433,434,434,436,436,437,437,437,437,437,437,438,438,438,439,440,440,441,443,444,445,446,447,447,448,449,449,450,450,451,451,452,454,455,456,456,457,458,458,459,460,461,462,464,465,465,466,467,468,468,470,470,471,471,472,472,473,473,475,475,476,478,479,480,481,482,483,483,484,484,485,486,487,487,488,489,491,492,493,495,496,497,497,499,499,500,501,503,504,505,507,508,508,509,510,510,511,511,512,512,513,513,515,516,517,518,518,519,520,521,521,521,521,521,520,520,520,0,0,0,0,0,640,642,642,644,644,646,646,646,646,647,647,647,648,651,658,663,0,0,0,0,0,0,0,0,0,0,0,0,0,0,0,0,0,0,688,683,677,0,0,0,0,0,0,617,615,616,615,613,614,613,613,613,0,0,0,0,540,536,532,531,529,527,522,520,519,517,516,513,512,511,510,508,508,507,506,506,505,504,504,504,503,502,501,501,501,500,499,499,499,499,498,497,497,496,0,494,0,0,0,0,0,0,0,0,0,0,0,0,0,0,0,0,0,0,0,0,0,0,0,0,0,651,0,0,653,655,657,658,659,661,662,0,0,662,657,653,0,0,0,0,0,0,0
397,397,398,0,0,0,400,400,400,400,400,400,401,401,402,402,0,0,405,405,406,407,407,410,411,412,413,414,414,415,0,0,421,424,424,424,425,425,424,423,422,422,422,422,423,423,424,425,427,428,429,431,432,433,433,434,434,435,436,437,437,437,438,438,438,438,438,439,439,440,440,441,442,444,445,446,447,448,448,448,449,450,450,451,451,452,453,454,455,456,457,458,458,459,459,461,461,462,464,465,466,467,468,469,469,470,471,471,471,472,472,473,473,475,476,477,479,480,481,482,483,483,484,484,485,486,486,487,488,489,490,492,493,494,496,497,497,498,499,500,501,502,504,506,507,508,509,510,511,511,511,512,512,513,513,514,515,516,517,518,519,519,520,521,521,521,521,521,521,521,520,520,0,0,0,0,0,641,642,643,644,644,645,646,646,645,645,646,647,648,654,664,671,0,0,0,0,0,0,715,717,0,0,723,720,0,0,0,0,701,0,697,694,0,0,0,0,0,618,615,613,614,614,614,613,613,614,614,615,603,592,0,0,541,536,533,531,530,527,522,521,519,518,517,514,513,513,512,510,510,509,508,507,506,506,505,505,504,503,503,503,503,503,503,502,501,501,500,499,498,497,497,496,495,0,0,0,0,0,0,0,0,0,0,0,0,0,0,0,0,0,0,0,0,0,0,0,0,0,0,0,0,0,659,659,660,661,662,0,0,0,0,0,0,0,0,0,0,0,0
396,397,398,0,0,400,401,401,0,400,400,401,401,401,402,0,0,0,0,406,0,0,408,0,0,414,415,415,415,416,417,418,420,423,423,423,423,423,423,422,422,422,422,422,423,0,0,425,427,428,429,431,432,432,433,434,434,435,436,437,437,438,438,438,438,438,439,439,440,440,440,441,442,445,446,447,448,449,449,449,450,450,450,451,452,452,453,455,456,457,458,458,459,459,460,461,462,462,465,465,466,467,468,469,470,471,471,471,472,472,472,473,473,475,477,478,480,481,482,483,484,484,485,486,486,487,488,490,491,491,492,494,495,495,497,497,498,498,500,501,501,503,505,506,507,509,510,510,511,511,512,512,512,513,514,514,516,517,518,518,519,520,521,521,521,521,522,521,521,521,521,520,0,0,0,0,0,0,641,641,643,644,644,644,644,644,644,646,648,650,658,670,0,0,0,715,731,721,719,723,725,725,729,727,725,727,719,715,714,709,706,706,705,0,0,0,0,0,0,615,614,615,618,618,617,617,617,618,615,609,0,0,0,0,0,0,0,530,528,525,523,522,521,519,518,517,515,514,512,511,511,510,508,507,506,506,506,505,504,504,505,504,504,503,503,503,501,501,500,499,499,0,497,0,0,0,0,0,0,0,0,0,0,0,0,0,0,0,0,0,0,0,0,0,0,0,0,0,658,657,657,658,659,660,660,660,661,661,662,663,0,0,0,0,0,0,0,0,0,0
396,397,398,0,399,400,400,401,400,400,400,401,401,402,402,0,0,0,405,406,406,407,408,412,413,414,415,415,415,416,417,418,419,421,0,422,422,423,422,421,421,421,422,422,0,0,0,425,428,0,0,431,432,432,433,434,434,435,436,437,438,438,438,438,439,439,440,440,440,441,441,442,443,445,446,447,448,449,449,449,450,450,451,451,452,453,454,456,457,458,458,459,460,460,460,461,462,463,465,465,466,467,469,470,471,471,472,472,472,473,473,474,475,476,478,479,481,482,483,484,484,485,486,487,487,488,489,491,492,493,493,495,495,496,497,497,498,499,500,501,502,503,506,506,508,509,510,511,511,511,512,512,513,514,514,515,516,517,518,519,520,521,521,521,522,522,522,522,522,521,521,521,0,0,0,0,638,639,640,640,640,641,642,642,642,643,644,644,651,658,0,0,694,704,709,724,735,738,740,745,746,745,743,739,735,733,731,729,728,725,725,725,0,0,0,0,0,0,0,0,623,623,623,622,618,618,620,620,618,0,0,0,0,0,0,0,531,530,529,526,525,524,522,521,519,518,517,516,514,513,512,511,509,508,507,507,506,506,505,506,506,505,505,505,504,503,503,501,501,500,499,0,0,0,0,0,0,0,0,0,0,0,0,0,0,0,0,0,0,0,0,0,0,0,0,0,0,0,0,659,659,659,660,660,661,660,660,661,662,662,662,0,0,0,0,0,0,0,0,0
397,398,398,399,399,400,400,400,400,400,400,401,401,402,402,403,404,405,405,406,407,407,408,413,413,414,415,415,416,416,417,418,419,420,421,422,422,421,421,421,421,421,422,422,423,424,425,426,428,0,0,0,431,432,432,433,433,434,436,437,438,438,439,439,440,440,441,441,442,442,443,443,0,446,447,448,449,449,449,450,450,451,451,452,454,454,455,457,457,458,459,460,460,461,461,462,462,463,465,466,466,468,470,471,471,472,472,472,473,473,474,475,475,478,478,479,481,482,483,484,485,486,486,488,489,489,491,492,493,494,494,495,496,497,497,498,499,499,501,502,503,503,506,507,508,509,510,510,511,511,512,512,513,514,514,515,517,518,518,519,521,521,521,521,522,522,523,523,523,523,0,0,0,0,0,0,0,0,0,0,0,0,642,642,642,643,643,644,657,0,683,0,703,708,714,721,731,735,737,744,745,745,743,0,735,733,731,731,730,728,728,0,0,728,725,0,0,0,0,0,0,0,0,0,623,623,622,622,0,622,0,0,0,0,0,0,0,531,529,528,527,526,524,522,521,520,519,518,516,514,513,512,509,508,508,508,507,506,506,506,506,506,506,505,505,504,503,503,502,501,501,0,0,0,0,0,0,0,0,0,0,0,0,0,0,0,0,0,0,0,0,0,0,0,0,0,0,0,0,0,661,661,0,661,660,659,660,659,659,660,660,659,0,0,0,0,0,0,0,0
397,398,398,399,399,400,400,401,401,401,401,401,402,402,402,403,404,405,405,406,407,407,409,412,413,414,415,415,416,417,0,0,0,420,420,421,421,421,421,421,421,422,422,423,424,425,426,427,428,429,430,431,431,432,432,433,433,433,0,0,438,438,440,440,440,441,441,442,442,443,443,444,445,447,447,448,449,450,450,450,451,451,452,452,454,455,455,457,458,459,459,460,461,461,461,462,462,463,465,465,466,468,0,471,472,472,472,473,473,474,475,475,476,478,479,481,482,483,484,484,486,486,487,489,489,491,492,493,494,495,495,496,497,497,498,499,499,500,501,502,503,504,506,507,508,509,510,510,511,511,511,512,513,514,515,516,518,519,519,520,521,522,522,522,523,524,524,524,525,524,0,0,0,0,0,0,0,0,0,0,0,0,643,642,642,643,644,653,0,0,0,692,698,0,0,716,726,731,734,739,742,0,742,739,736,734,732,731,731,730,730,731,731,730,728,722,0,0,0,652,0,641,637,630,627,627,625,625,624,624,0,0,0,0,0,0,0,532,531,530,529,527,526,524,523,522,521,520,518,518,516,514,512,511,510,510,509,508,507,508,508,506,506,506,506,506,505,504,504,503,0,0,0,0,0,0,0,0,0,0,0,0,0,0,0,0,0,0,0,0,0,0,0,0,0,0,0,0,0,0,662,662,661,661,660,659,659,658,659,658,659,659,0,0,0,0,0,0,0,0
397,398,399,399,399,400,401,401,401,401,401,402,403,403,404,404,405,406,406,408,408,0,0,0,413,414,416,416,417,418,418,0,420,420,420,420,420,421,421,421,421,422,423,423,425,426,426,427,429,429,430,431,431,431,432,433,433,434,0,0,438,439,440,440,441,441,442,442,443,443,444,444,445,447,448,449,449,450,450,450,0,0,452,453,455,455,456,458,459,459,460,460,461,461,461,462,462,463,465,466,467,468,470,471,472,473,473,473,474,475,475,476,477,480,481,482,483,484,485,485,487,487,488,490,492,493,494,496,496,497,497,498,498,499,499,500,500,501,503,503,504,505,507,507,508,509,509,510,510,511,511,512,512,514,515,516,518,519,520,521,522,522,523,523,524,524,525,525,525,525,0,0,0,0,0,0,0,0,0,0,0,0,0,0,644,644,646,0,0,0,686,691,696,0,0,706,715,721,725,727,735,738,741,741,738,737,736,736,735,735,734,733,731,729,726,714,0,0,673,664,655,0,0,642,638,635,632,631,0,0,0,0,0,0,0,0,0,538,536,535,533,531,530,527,526,526,524,522,520,518,517,515,513,512,511,511,510,508,508,508,508,507,507,507,507,506,506,506,506,506,0,0,0,0,0,0,0,0,0,0,0,0,0,0,0,0,0,0,0,0,0,0,0,0,0,0,0,0,0,0,0,0,663,661,659,658,659,656,655,656,658,658,0,0,0,0,0,0,0,0
398,399,399,399,400,400,401,401,401,401,401,402,404,404,405,405,405,406,407,408,408,409,0,0,413,415,416,0,418,419,420,0,420,420,420,420,421,422,422,422,422,423,424,424,425,426,427,428,428,429,430,431,431,431,432,433,433,434,0,0,438,439,440,0,442,442,442,443,443,444,444,445,446,447,448,449,449,450,450,450,0,0,453,454,455,456,457,459,459,460,461,461,461,462,462,462,463,463,465,466,467,468,471,472,473,474,474,474,475,476,477,478,480,480,481,482,484,484,485,485,486,487,488,491,492,494,495,497,497,498,498,499,499,499,500,501,501,502,503,504,505,506,507,508,508,509,509,509,510,511,511,511,512,514,515,516,518,520,520,521,522,523,523,524,525,525,525,526,526,526,526,0,0,0,0,0,0,0,0,0,0,0,0,0,0,0,0,0,0,676,677,679,684,691,695,699,704,716,719,722,729,732,737,0,0,0,739,738,737,735,732,730,728,725,722,710,0,697,690,0,678,674,658,651,646,643,640,638,0,0,0,0,0,0,0,0,0,539,538,537,535,533,531,529,527,527,526,523,521,520,518,516,514,513,513,0,511,510,509,509,509,508,508,507,507,507,507,507,507,0,0,0,0,0,0,0,0,0,0,0,0,0,0,0,0,0,0,0,0,0,0,0,0,0,0,0,0,0,0,0,0,0,0,660,658,657,656,655,655,655,657,657,0,0,0,0,0,0,0,0
398,0,0,400,400,401,401,401,401,401,401,403,404,405,405,405,406,407,407,409,409,410,411,413,414,415,0,418,418,420,421,421,421,0,0,421,421,422,422,423,423,424,425,425,426,427,427,428,428,429,430,431,431,431,432,433,434,434,0,0,440,440,441,0,443,443,443,443,444,445,445,446,446,447,448,449,450,450,450,451,452,453,454,455,456,457,457,459,459,460,461,461,462,462,462,462,463,463,466,467,468,469,471,472,473,474,475,475,476,477,478,479,481,481,482,482,484,484,485,485,487,487,489,491,493,494,495,497,498,498,499,499,499,500,501,501,502,503,504,505,505,506,507,507,508,508,509,509,509,510,511,511,512,514,515,516,518,520,521,521,523,523,524,524,525,526,526,526,528,528,528,0,0,0,0,0,0,0,0,0,0,0,0,0,0,0,0,0,0,668,672,674,677,682,689,693,697,709,712,715,722,725,728,0,0,0,737,735,734,732,731,725,723,719,0,0,706,694,690,0,680,671,663,657,652,648,644,642,0,0,0,0,0,0,0,0,543,541,539,538,536,534,531,530,528,528,526,524,522,520,519,517,516,514,514,0,513,511,510,510,510,508,508,508,508,508,508,508,508,0,0,0,0,0,0,0,0,0,0,0,0,0,0,0,0,0,0,0,0,0,0,0,0,0,0,0,0,0,0,0,0,0,0,0,0,0,655,0,0,0,0,0,0,0,0,0,0,0,0,0
399,400,400,400,400,0,0,0,0,0,0,0,0,0,406,406,407,408,408,410,410,410,411,413,414,415,418,418,419,420,422,422,422,0,0,0,423,423,424,424,425,425,426,426,427,427,428,428,429,0,0,432,432,433,0,0,437,438,440,440,441,441,441,442,443,444,444,444,445,445,446,446,446,448,448,449,450,450,450,451,452,454,454,455,456,457,458,459,460,460,461,462,462,462,462,463,463,464,466,467,468,469,471,472,473,474,475,476,476,478,479,479,481,482,482,483,484,484,485,486,487,488,489,492,493,495,496,498,498,498,499,499,500,500,501,502,503,503,505,505,506,507,508,508,508,509,509,509,509,510,511,511,512,514,515,517,519,521,521,522,524,524,525,525,526,527,527,528,529,529,529,0,0,0,0,0,0,0,0,0,0,0,651,651,651,650,651,656,660,664,666,669,673,676,685,689,693,705,708,710,716,719,722,725,0,0,735,733,731,729,727,720,717,714,710,0,697,693,689,686,683,675,671,0,658,655,651,647,0,0,0,0,0,0,0,0,545,543,541,539,538,535,532,531,530,529,527,525,523,521,520,519,518,517,516,515,514,513,513,513,511,510,510,510,510,510,510,510,512,0,0,0,0,0,0,0,0,0,0,0,0,0,0,0,0,0,0,0,0,0,0,0,0,0,0,0,0,0,0,0,0,0,0,0,0,0,0,0,0,0,0,0,0,0,0,0,0,0,0,0
399,400,401,401,402,402,0,0,0,0,0,0,0,407,408,409,409,410,410,411,411,411,411,413,414,415,418,419,420,421,422,422,422,0,0,0,423,424,424,424,425,426,426,426,427,428,428,428,0,0,0,0,432,434,0,0,0,0,0,0,0,444,444,444,445,445,445,445,445,446,447,447,447,448,449,450,450,451,451,451,452,454,455,455,457,457,458,460,460,461,461,461,462,462,462,463,464,465,467,468,469,469,471,472,473,475,475,476,477,479,479,480,482,482,482,483,484,484,485,486,488,489,491,493,495,496,497,498,498,499,499,500,500,501,502,503,504,504,506,506,507,507,508,508,508,509,509,509,509,510,511,511,512,514,515,517,519,521,522,522,524,525,525,526,527,527,528,529,530,530,530,0,0,0,651,651,651,651,651,0,0,0,651,651,651,0,0,653,655,658,660,663,667,671,674,678,683,693,696,700,702,706,709,712,719,722,725,724,722,719,718,714,706,702,700,697,693,689,687,686,683,676,675,671,668,0,660,659,0,0,0,0,0,0,0,0,547,544,543,541,539,538,535,533,532,531,529,526,524,522,521,520,519,518,518,516,515,514,514,514,512,511,511,511,511,511,512,511,0,0,0,0,0,0,0,0,0,0,0,0,0,0,0,0,0,0,0,0,0,0,0,0,0,0,0,0,0,0,0,0,0,0,0,0,0,0,0,0,0,0,0,0,0,0,0,0,0,0,0,0
