# .PCD v0.7 - Point Cloud Data file format
VERSION 0.7
FIELDS x y z
SIZE 4 4 4
TYPE F F F
COUNT 1 1 1
WIDTH 1682
HEIGHT 1
VIEWPOINT 0 0 0 1 0 0 0
POINTS 1682
DATA ascii
-162.6025561 201.8348285 484
-160.0795611 201.8348285 484
-157.556566 201.8348285 484
-154.7132537 201.4178144 483
-152.1954715 201.4178144 483
-149.3677976 201.0008003 482
-147.159907 201.4178144 483
-144.3426587 201.0008003 482
-141.535836 200.5837862 481
-139.0284793 200.5837862 481
-136.237295 200.166772 480
-133.7351512 200.166772 480
-131.2330074 200.166772 480
-128.7308635 200.166772 480
-126.2287197 200.166772 480
-123.4688122 199.7497579 479
-120.9718811 199.7497579 479
-118.227612 199.3327438 478
-115.7358938 199.3327438 478
-112.7703505 198.4987156 476
-110.2890579 198.4987156 476
-107.8077653 198.4987156 476
-105.3264727 198.4987156 476
-102.84518 198.4987156 476
-55.23254761 196.8306592 472
-50.31166474 196.8306592 472
-47.85122331 196.8306592 472
-45.48694879 197.2476733 473
-43.02129456 197.2476733 473
-40.64138164 197.6646874 474
-38.25104312 198.0817015 475
-35.850279 198.4987156 476
-33.36898637 198.4987156 476
-30.88769374 198.4987156 476
-28.3467238 198.0817015 475
-25.81617945 197.6646874 474
-23.29606071 197.2476733 473
-20.83040648 197.2476733 473
-18.32592613 196.8306592 472
-13.34824224 195.996631 470
-10.87503869 195.5796169 469
-8.44821057 195.996631 470
-5.998194737 195.996631 470
-3.555728221 196.4136451 471
-1.102836106 196.8306592 472
1.357605326 196.8306592 472
3.82613584 197.2476733 473
6.291790071 197.2476733 473
8.775958984 197.6646874 474
11.22309853 197.2476733 473
13.68875277 197.2476733 473
16.154407 197.2476733 473
18.58069535 196.8306592 472
21.04113678 196.8306592 472
23.50157821 196.8306592 472
25.90701537 196.4136451 471
28.30202692 195.996631 470
30.75204275 195.996631 470
33.13141591 195.5796169 469
35.50036346 195.1626027 468
37.85888542 194.7455886 467
40.29326285 194.7455886 467
42.72764029 194.7455886 467
45.16201772 194.7455886 467
47.59639515 194.7455886 467
50.13790486 195.1626027 468
52.68984017 195.5796169 469
55.25220108 195.996631 470
57.82498759 196.4136451 471
60.40819969 196.8306592 472
62.86864112 196.8306592 472
65.32908256 196.8306592 472
67.78952399 196.8306592 472
70.24996542 196.8306592 472
72.71040685 196.8306592 472
75.01158801 196.4136451 471
77.46681664 196.4136451 471
79.75235941 195.996631 470
82.02747657 195.5796169 469
84.4722796 195.5796169 469
86.91708263 195.5796169 469
89.1713486 195.1626027 468
91.61093883 195.1626027 468
94.25149173 195.5796169 469
96.69629476 195.5796169 469
99.35248607 195.996631 470
101.8025019 195.996631 470
104.4743316 196.4136451 471
107.1565869 196.8306592 472
109.6170283 196.8306592 472
112.0774698 196.8306592 472
-185.0524649 206.891185 490
-182.498193 206.891185 490
-179.5766887 206.468958 489
-176.3035903 205.6245042 487
-173.7649569 205.6245042 487
-170.8747294 205.2022773 486
-167.9949274 204.7800504 485
-164.7843826 203.9355966 483
-161.9306447 203.5133697 482
-159.4180753 203.5133697 482
-156.9055058 203.5133697 482
-154.0726191 203.0911428 481
-151.5652625 203.0911428 481
-149.0579059 203.0911428 481
-146.5505492 203.0911428 481
-144.0431926 203.0911428 481
-141.2415827 202.6689159 480
-138.4503983 202.246689 479
-135.9534673 202.246689 479
-133.4565363 202.246689 479
-130.9596053 202.246689 479
-128.4626742 202.246689 479
-125.9657432 202.246689 479
-123.2110485 201.8244621 478
-120.7193302 201.8244621 478
-117.9802739 201.4022352 477
-115.2516432 200.9800082 476
-112.533438 200.5577813 475
-109.8256585 200.1355544 474
-107.1283046 199.7133275 473
-104.6626503 199.7133275 473
-102.1969961 199.7133275 473
-99.73134189 199.7133275 473
-57.69298904 199.2911006 472
-55.1155295 198.8688737 471
-52.66030087 198.8688737 471
-50.20507223 198.8688737 471
-47.85122331 199.2911006 472
-45.48694879 199.7133275 473
-43.02129456 199.7133275 473
-40.55564033 199.7133275 473
-38.17051461 200.1355544 474
-33.36898637 200.9800082 476
-30.82280363 200.5577813 475
-28.28704648 200.1355544 474
-25.76171494 199.7133275 473
-23.24680899 199.2911006 472
-20.74232865 198.8688737 471
-18.2482739 198.4466468 470
-15.79825807 198.4466468 470
-13.31984172 198.0244199 469
-10.87503869 198.0244199 469
-8.430235654 198.0244199 469
-5.998194737 198.4466468 470
-3.548178905 198.4466468 470
-1.100499589 198.8688737 471
1.357605326 199.2911006 472
3.818046758 199.2911006 472
6.291790071 199.7133275 473
8.757444303 199.7133275 473
11.22309853 199.7133275 473
13.65981249 199.2911006 472
16.12025392 199.2911006 472
18.58069535 199.2911006 472
20.9965581 198.8688737 471
23.45178673 198.8688737 471
25.74200253 197.602193 468
28.18159276 197.602193 468
30.55575312 197.1799661 467
32.99013055 197.1799661 467
35.34865251 196.7577392 466
37.77781714 196.7577392 466
40.20698178 196.7577392 466
42.63614641 196.7577392 466
45.16201772 197.1799661 467
47.59639515 197.1799661 467
50.13790486 197.602193 468
52.68984017 198.0244199 469
55.25220108 198.4466468 470
57.82498759 198.8688737 471
60.40819969 199.2911006 472
62.86864112 199.2911006 472
65.19067348 198.8688737 471
67.50228024 198.4466468 470
69.8034614 198.0244199 469
72.24826444 198.0244199 469
74.5338072 197.602193 468
76.97339743 197.602193 468
79.24330179 197.1799661 467
81.67767923 197.1799661 467
84.11205666 197.1799661 467
86.54643409 197.1799661 467
89.1713486 197.602193 468
91.61093883 197.602193 468
94.05052906 197.602193 468
96.69629476 198.0244199 469
99.1410978 198.0244199 469
101.5859008 198.0244199 469
104.2525177 198.4466468 470
106.9295602 198.8688737 471
-187.2238658 209.0180171 489
-184.2971487 208.5905774 488
-181.3808572 208.1631377 487
-178.8422237 208.1631377 487
-175.9415706 207.7356979 486
-173.0513431 207.3082582 485
-170.1715412 206.8808185 484
-167.3021648 206.4533788 483
-164.1020456 205.5984994 481
-161.2587333 205.1710597 480
-158.7565895 205.1710597 480
-156.2544456 205.1710597 480
-153.7523018 205.1710597 480
-150.9350535 204.74362 479
-148.4381225 204.74362 479
-145.9411914 204.74362 479
-143.4442604 204.74362 479
-140.9473294 204.74362 479
-138.4503983 204.74362 479
-135.6696396 204.3161803 478
-133.1779214 204.3161803 478
-125.7027667 204.3161803 478
-123.2110485 204.3161803 478
-120.2142284 203.4613009 476
-117.4855977 203.0338612 475
-115.0095179 203.0338612 475
-112.2965255 202.6064215 474
-109.5939588 202.1789817 473
-106.9018177 201.751542 472
-104.2201021 201.3241023 471
-101.7648735 201.3241023 471
-57.32629631 200.4692229 469
-54.99851139 200.8966626 470
-52.54849556 200.8966626 470
-50.09847972 200.8966626 470
-47.64846389 200.8966626 470
-45.29461497 201.3241023 471
-42.93034045 201.751542 472
-40.29841639 200.8966626 470
-38.0899861 202.1789817 473
-33.15867763 202.1789817 473
-30.56324318 201.3241023 471
-28.16769186 201.751542 472
-25.65278591 201.3241023 471
-23.19755728 201.3241023 471
-20.6102119 200.0417832 468
-18.17062167 200.0417832 468
-15.73103144 200.0417832 468
-13.2914412 200.0417832 468
-10.85185097 200.0417832 468
-8.412260738 200.0417832 468
-5.972670504 200.0417832 468
-3.540629588 200.4692229 469
-1.095826555 200.4692229 469
1.354729043 201.3241023 471
3.809957675 201.3241023 471
6.265186308 201.3241023 471
8.72041494 201.3241023 471
11.17564357 201.3241023 471
13.60193192 200.8966626 470
16.05194776 200.8966626 470
18.46259771 200.4692229 469
20.90740074 200.4692229 469
23.3024123 200.0417832 468
25.74200253 200.0417832 468
28.12137568 199.6143435 467
30.49032324 199.1869038 466
32.91948787 199.1869038 466
35.34865251 199.1869038 466
37.77781714 199.1869038 466
40.20698178 199.1869038 466
42.63614641 199.1869038 466
45.06531104 199.1869038 466
47.59639515 199.6143435 467
50.24503714 200.4692229 469
52.80218525 200.8966626 470
55.36975895 201.3241023 471
57.82498759 201.3241023 471
60.40819969 201.751542 472
62.73544485 201.3241023 471
65.19067348 201.3241023 471
67.35865837 200.4692229 469
69.65462673 200.0417832 468
72.09421696 200.0417832 468
74.5338072 200.0417832 468
76.80892436 199.6143435 467
79.24330179 199.6143435 467
81.67767923 199.6143435 467
84.11205666 199.6143435 467
86.54643409 199.6143435 467
89.1713486 200.0417832 468
91.61093883 200.0417832 468
94.05052906 200.0417832 468
96.69629476 200.4692229 469
99.1410978 200.4692229 469
101.5859008 200.4692229 469
-191.9286873 211.1344236 488
-189.3848411 211.1344236 488
-186.458124 210.7017711 487
-182.7865163 209.4038136 484
-179.891076 208.9711611 483
-177.3732938 208.9711611 483
-174.4934918 208.5385085 482
-171.6241155 208.105856 481
-168.7651648 207.6732035 480
-165.9166397 207.240551 479
-163.0785401 206.8078985 478
-160.2508662 206.375246 477
-157.7643608 206.375246 477
-155.2778554 206.375246 477
-152.7913499 206.375246 477
-149.98974 205.9425935 476
-148.1282308 206.8078985 478
-145.0271547 205.9425935 476
-142.8453282 206.375246 477
-140.3588228 206.375246 477
-137.8723174 206.375246 477
-135.3858119 206.375246 477
-132.8993065 206.375246 477
-130.4128011 206.375246 477
-127.9262956 206.375246 477
-125.1768137 205.9425935 476
-122.4377574 205.509941 475
-119.4565757 204.644636 473
-116.9909215 204.644636 473
-114.283142 204.2119835 472
-111.585788 203.779331 471
-108.8988597 203.3466785 470
-106.4488439 203.3466785 470
-103.7775539 202.914026 469
-101.3327509 202.914026 469
-62.08324587 202.4813734 468
-59.64365564 202.4813734 468
-57.32629631 202.914026 469
-49.99188721 202.914026 469
-47.54708418 202.914026 469
-30.43346295 202.914026 469
-20.56617299 202.0487209 467
-18.13179556 202.0487209 467
-15.69741812 202.0487209 467
-13.26304069 202.0487209 467
-10.82866326 202.0487209 467
-8.412260738 202.4813734 468
-5.972670504 202.4813734 468
-3.540629588 202.914026 469
-1.095826555 202.914026 469
1.351852761 203.3466785 470
3.801868593 203.3466785 470
6.251884426 203.3466785 470
8.701900259 203.3466785 470
11.12818861 202.914026 469
13.57299164 202.914026 469
16.01779468 202.914026 469
18.42323183 202.4813734 468
20.86282206 202.4813734 468
23.25262082 202.0487209 467
25.68699825 202.0487209 467
28.06115861 201.6160684 466
30.49032324 201.6160684 466
32.91948787 201.6160684 466
35.27279703 201.1834159 465
37.69674886 201.1834159 465
40.1207007 201.1834159 465
42.63614641 201.6160684 466
45.06531104 201.6160684 466
47.59639515 202.0487209 467
50.13790486 202.4813734 468
52.68984017 202.914026 469
64.91385534 202.914026 469
67.2150365 202.4813734 468
69.50579206 202.0487209 467
71.94016949 202.0487209 467
74.37454692 202.0487209 467
76.64445129 201.6160684 466
79.07361592 201.6160684 466
81.67767923 202.0487209 467
84.11205666 202.0487209 467
86.54643409 202.0487209 467
89.1713486 202.4813734 468
91.61093883 202.4813734 468
94.05052906 202.4813734 468
96.4901193 202.4813734 468
98.92970953 202.4813734 468
-195.8052135 212.3646739 485
-193.2770057 212.3646739 485
-190.3555014 211.9268086 484
-187.8325064 211.9268086 484
-185.3095113 211.9268086 484
-182.0312001 211.051078 482
-179.1461854 210.6132127 481
-176.6388288 210.6132127 481
-173.4074328 209.7374821 479
-170.9105017 209.7374821 479
-168.0619766 209.2996167 478
-165.5702584 209.2996167 478
-162.3962032 208.4238861 476
-159.9149105 208.4238861 476
-157.4336179 208.4238861 476
-154.9523253 208.4238861 476
-152.4710326 208.4238861 476
-149.98974 208.4238861 476
-147.5084474 208.4238861 476
-145.0271547 208.4238861 476
-142.5458621 208.4238861 476
-140.0645695 208.4238861 476
-137.5832769 208.4238861 476
-135.1019842 208.4238861 476
-132.6206916 208.4238861 476
-130.139399 208.4238861 476
-127.389917 207.9860208 475
-124.6508607 207.5481555 474
-121.92223 207.1102902 473
-119.2040248 206.6724249 472
-116.4962453 206.2345596 471
-113.7988914 205.7966943 470
-111.3488755 205.7966943 470
-108.66716 205.358829 469
-106.222357 205.358829 469
-103.5562798 204.9209637 468
-101.1166896 204.9209637 468
-98.67709937 204.9209637 468
-64.3849668 204.4830984 467
-62.08324587 204.9209637 468
-59.64365564 204.9209637 468
-57.32629631 205.358829 469
-54.88149328 205.358829 469
-52.43669025 205.358829 469
-49.8852947 204.9209637 468
-40.04119246 204.4830984 467
-35.17243759 204.4830984 467
-32.73806016 204.4830984 467
-30.30368272 204.4830984 467
-27.80962798 204.0452331 466
-25.38046334 204.0452331 466
-22.95129871 204.0452331 466
-20.52213408 204.0452331 466
-18.13179556 204.4830984 467
-15.69741812 204.4830984 467
-13.26304069 204.4830984 467
-10.82866326 204.4830984 467
-8.412260738 204.9209637 468
-5.972670504 204.9209637 468
-3.533080271 204.9209637 468
-1.093490038 204.9209637 468
1.348976478 205.358829 469
3.793779511 205.358829 469
6.238582544 205.358829 469
8.683385577 205.358829 469
11.12818861 205.358829 469
13.54405136 204.9209637 468
15.9836416 204.9209637 468
18.38386595 204.4830984 467
20.81824338 204.4830984 467
23.20282934 204.0452331 466
25.63199397 204.0452331 466
28.00094153 203.6073678 465
30.49032324 204.0452331 466
32.8488452 203.6073678 465
35.27279703 203.6073678 465
37.69674886 203.6073678 465
40.20698178 204.0452331 466
42.63614641 204.0452331 466
45.06531104 204.0452331 466
47.59639515 204.4830984 467
50.13790486 204.9209637 468
52.68984017 205.358829 469
64.91385534 205.358829 469
67.07141462 204.4830984 467
69.35695738 204.0452331 466
71.78612202 204.0452331 466
74.21528665 204.0452331 466
76.64445129 204.0452331 466
79.07361592 204.0452331 466
81.50278055 204.0452331 466
84.11205666 204.4830984 467
86.54643409 204.4830984 467
88.98081153 204.4830984 467
91.41518896 204.4830984 467
94.05052906 204.9209637 468
-200.4474815 214.4498036 484
-197.9244865 214.4498036 484
-195.4014914 214.4498036 484
-192.4799871 214.0067255 483
-189.5689084 213.5636474 482
-187.056339 213.5636474 482
-184.5437695 213.5636474 482
-181.2758839 212.6774912 480
-178.4012948 212.2344131 479
-175.5371313 211.791335 478
-173.0454131 211.791335 478
-170.1968879 211.3482569 477
-167.3587884 210.9051788 476
-164.8774958 210.9051788 476
-162.0550347 210.4621007 475
-159.5789548 210.4621007 475
-157.102875 210.4621007 475
-154.6267952 210.4621007 475
-152.1507153 210.4621007 475
-149.6746355 210.4621007 475
-147.1985557 210.4621007 475
-144.7224758 210.4621007 475
-142.5458621 210.9051788 476
-140.0645695 210.9051788 476
-137.5832769 210.9051788 476
-134.8181565 210.4621007 475
-132.3420767 210.4621007 475
-129.5925948 210.0190226 474
-126.8535384 209.5759444 473
-118.698923 208.2467101 470
-116.0015691 207.803632 469
-113.5567661 207.803632 469
-111.111963 207.803632 469
-108.4354603 207.3605539 468
-105.9958701 207.3605539 468
-103.5562798 207.3605539 468
-101.1166896 207.3605539 468
-98.67709937 207.3605539 468
-66.81934423 206.9174758 467
-64.3849668 206.9174758 467
-61.95058936 206.9174758 467
-59.64365564 207.3605539 468
-57.32629631 207.803632 469
-54.76447517 207.3605539 468
-52.32488494 207.3605539 468
-49.77870219 206.9174758 467
-47.34432476 206.9174758 467
-44.90994733 206.9174758 467
-42.47556989 206.9174758 467
-39.86970984 206.0313196 465
-37.52628651 206.4743977 466
-35.02180617 206.0313196 465
-32.66795725 206.4743977 466
-30.23879261 206.4743977 466
-27.74995066 206.0313196 465
-25.32599883 206.0313196 465
-22.95129871 206.4743977 466
-20.52213408 206.4743977 466
-18.09296944 206.4743977 466
-15.66380481 206.4743977 466
-13.26304069 206.9174758 467
-10.82866326 206.9174758 467
-8.394285822 206.9174758 467
-5.972670504 207.3605539 468
-3.533080271 207.3605539 468
-1.093490038 207.3605539 468
1.346100196 207.3605539 468
3.785690429 207.3605539 468
6.225280662 207.3605539 468
8.664870896 207.3605539 468
11.08073365 206.9174758 467
13.51511108 206.9174758 467
15.94948852 206.9174758 467
18.34450007 206.4743977 466
20.7736647 206.4743977 466
23.15303786 206.0313196 465
25.57698969 206.0313196 465
28.00094153 206.0313196 465
30.42489336 206.0313196 465
32.8488452 206.0313196 465
35.27279703 206.0313196 465
37.69674886 206.0313196 465
40.1207007 206.0313196 465
42.54465253 206.0313196 465
44.96860437 206.0313196 465
47.3925562 206.0313196 465
49.92364031 206.4743977 466
52.35280495 206.4743977 466
54.78196958 206.4743977 466
57.33390489 206.9174758 467
59.76828232 206.9174758 467
62.20265976 206.9174758 467
64.63703719 206.9174758 467
66.92779275 206.4743977 466
69.35695738 206.4743977 466
71.63207455 206.0313196 465
74.05602638 206.0313196 465
76.47997822 206.0313196 465
78.90393005 206.0313196 465
81.32788188 206.0313196 465
83.75183372 206.0313196 465
86.17578555 206.0313196 465
88.79027446 206.4743977 466
91.21943909 206.4743977 466
-202.1317555 216.0762168 482
-199.6191861 216.0762168 482
-197.5155516 216.5245077 483
-194.5940473 216.0762168 482
-191.6829685 215.6279259 481
-189.1756119 215.6279259 481
-186.2801716 215.179635 480
-183.3951569 214.7313441 479
-180.5205678 214.2830532 478
-177.6564042 213.8347623 477
-174.8026663 213.3864714 476
-172.3213737 213.3864714 476
-169.4832742 212.9381805 475
-167.0071943 212.9381805 475
-164.1847332 212.4898896 474
-161.3726977 212.0415987 473
-158.9070434 212.0415987 473
-156.7721321 212.4898896 474
-154.3012651 212.4898896 474
-152.1507153 212.9381805 475
-149.359531 212.4898896 474
-146.888664 212.4898896 474
-144.7224758 212.9381805 475
-142.246396 212.9381805 475
-139.7703162 212.9381805 475
-137.2942364 212.9381805 475
-134.8181565 212.9381805 475
-132.3420767 212.9381805 475
-129.3191927 212.0415987 473
-126.5853491 211.5933078 472
-118.4463721 210.2484351 469
-116.0015691 210.2484351 469
-113.3146408 209.8001441 468
-110.8750505 209.8001441 468
-108.4354603 209.8001441 468
-105.9958701 209.8001441 468
-103.5562798 209.8001441 468
-101.1166896 209.8001441 468
-98.67709937 209.8001441 468
-69.10542676 208.9035623 466
-66.67626212 208.9035623 466
-64.3849668 209.3518532 467
-61.95058936 209.3518532 467
-59.51621193 209.3518532 467
-57.2040654 209.8001441 468
-54.64745706 209.3518532 467
-52.21307963 209.3518532 467
-49.67210968 208.9035623 466
-47.14156534 208.4552714 465
-44.71761351 208.4552714 465
-42.29366167 208.4552714 465
-39.78396853 208.0069805 464
-37.28470098 207.5586896 463
-34.87117474 207.5586896 463
-32.52775142 208.0069805 464
-30.10901239 208.0069805 464
-27.69027335 208.0069805 464
-25.27153432 208.0069805 464
-22.902047 208.4552714 465
-20.47809516 208.4552714 465
-18.09296944 208.9035623 466
-15.66380481 208.9035623 466
-13.23464017 208.9035623 466
-10.80547554 208.9035623 466
-8.376310905 208.9035623 466
-5.947146271 208.9035623 466
-3.517981637 208.9035623 466
-1.088817003 208.9035623 466
1.340347631 208.9035623 466
3.769512265 208.9035623 466
6.198676899 208.9035623 466
8.627841533 208.9035623 466
11.03327869 208.4552714 465
13.45723052 208.4552714 465
15.88118235 208.4552714 465
18.30513419 208.4552714 465
20.72908602 208.4552714 465
23.15303786 208.4552714 465
25.57698969 208.4552714 465
28.00094153 208.4552714 465
30.42489336 208.4552714 465
32.8488452 208.4552714 465
35.27279703 208.4552714 465
37.69674886 208.4552714 465
40.1207007 208.4552714 465
42.54465253 208.4552714 465
47.3925562 208.4552714 465
49.81650804 208.4552714 465
52.24045987 208.4552714 465
54.66441171 208.4552714 465
57.08836354 208.4552714 465
59.64029885 208.9035623 466
62.06946348 208.9035623 466
64.63703719 209.3518532 467
66.92779275 208.9035623 466
69.20812271 208.4552714 465
71.63207455 208.4552714 465
74.05602638 208.4552714 465
76.31550514 208.0069805 464
78.73424418 208.0069805 464
81.32788188 208.4552714 465
83.75183372 208.4552714 465
86.17578555 208.4552714 465
-206.2973222 217.6817788 480
-204.2197517 218.1352826 481
-201.7123951 218.1352826 481
-199.6191861 218.5887863 482
-197.1066167 218.5887863 482
-194.1903252 218.1352826 481
-191.2844593 217.6817788 480
-187.9957224 216.7747714 478
-185.1159205 216.3212677 477
-182.2465442 215.867764 476
-179.3875935 215.4142603 475
-176.5390684 214.9607566 474
-173.7009688 214.5072529 473
-171.2353146 214.5072529 473
-168.4128535 214.0537492 472
-165.952412 214.0537492 472
-163.4919706 214.0537492 472
-160.6903607 213.6002455 471
-158.5710877 214.0537492 472
-156.1106463 214.0537492 472
-153.975735 214.5072529 473
-151.5100807 214.5072529 473
-149.0444265 214.5072529 473
-146.5787723 214.5072529 473
-144.1131181 214.5072529 473
-141.6474638 214.5072529 473
-139.1818096 214.5072529 473
-136.7161554 214.5072529 473
-134.2505011 214.5072529 473
-128.7723885 213.6002455 471
-125.7807812 212.6932381 469
-123.0730017 212.2397344 468
-120.6334115 212.2397344 468
-118.1938212 212.2397344 468
-115.754231 212.2397344 468
-113.3146408 212.2397344 468
-110.8750505 212.2397344 468
-108.4354603 212.2397344 468
-105.9958701 212.2397344 468
-103.3350057 211.7862307 467
-100.9006283 211.7862307 467
-98.46625087 211.7862307 467
-69.10542676 211.332727 466
-66.67626212 211.332727 466
-64.3849668 211.7862307 467
-61.95058936 211.7862307 467
-59.51621193 211.7862307 467
-57.0818345 211.7862307 467
-54.64745706 211.7862307 467
-52.10127432 211.332727 466
-49.56551717 210.8792233 465
-47.14156534 210.8792233 465
-44.62144659 210.4257196 464
-42.20270756 210.4257196 464
-39.69822721 209.9722158 463
-37.28470098 209.9722158 463
-30.04412227 209.9722158 463
-27.69027335 210.4257196 464
-25.27153432 210.4257196 464
-22.902047 210.8792233 465
-20.47809516 210.8792233 465
-18.05414333 210.8792233 465
-15.63019149 210.8792233 465
-13.20623966 210.8792233 465
-10.78228782 210.8792233 465
-8.358335989 210.8792233 465
-5.934384155 210.8792233 465
-3.510432321 210.8792233 465
-1.086480486 210.8792233 465
1.337471348 210.8792233 465
3.761423183 210.8792233 465
6.185375017 210.8792233 465
8.59081217 210.4257196 464
11.0095512 210.4257196 464
13.42829024 210.4257196 464
15.84702927 210.4257196 464
18.26576831 210.4257196 464
20.68450734 210.4257196 464
23.15303786 210.8792233 465
25.57698969 210.8792233 465
28.00094153 210.8792233 465
30.42489336 210.8792233 465
32.8488452 210.8792233 465
35.27279703 210.8792233 465
37.69674886 210.8792233 465
40.03441962 210.4257196 464
47.18871725 209.9722158 463
49.60224349 209.9722158 463
52.01576972 209.9722158 463
54.54685383 210.4257196 464
57.08836354 210.8792233 465
59.51231537 210.8792233 465
62.06946348 211.332727 466
64.49862812 211.332727 466
66.78417088 210.8792233 465
69.20812271 210.8792233 465
71.63207455 210.8792233 465
73.89676611 210.4257196 464
76.15103207 209.9722158 463
78.56455831 209.9722158 463
81.15298321 210.4257196 464
83.57172225 210.4257196 464
-208.3644672 219.7252062 479
-205.8675361 219.7252062 479
-203.3706051 219.7252062 479
-200.8736741 219.7252062 479
-198.7908907 220.1839227 480
-196.2887469 220.1839227 480
-193.382881 219.7252062 479
-190.0889314 218.8077732 477
-187.2091295 218.3490567 476
-184.7278368 218.3490567 476
-181.8636733 217.8903401 475
-179.0099354 217.4316236 474
-175.7941778 216.5141906 472
-173.3337363 216.5141906 472
-170.5112752 216.0554741 471
-168.0560466 216.0554741 471
-165.600818 216.0554741 471
-163.1455893 216.0554741 471
-160.6903607 216.0554741 471
-158.2351321 216.0554741 471
-155.7799034 216.0554741 471
-153.975735 216.9729071 473
-151.5100807 216.9729071 473
-149.0444265 216.9729071 473
-143.8084392 216.5141906 472
-141.3479977 216.5141906 472
-138.8875563 216.5141906 472
-125.2444026 214.2206081 467
-122.8100252 214.2206081 467
-120.3756478 214.2206081 467
-117.9412703 214.2206081 467
-115.5068929 214.2206081 467
-113.0725155 214.2206081 467
-110.8750505 214.6793246 468
-108.4354603 214.6793246 468
-105.7693832 214.2206081 467
-103.3350057 214.2206081 467
-68.95713185 213.3031751 465
-66.67626212 213.7618916 466
-64.3849668 214.2206081 467
-61.81793285 213.7618916 466
-59.51621193 214.2206081 467
-56.95960359 213.7618916 466
-54.53043895 213.7618916 466
-51.98946901 213.3031751 465
-49.56551717 213.3031751 465
-47.04018563 212.8444586 464
-44.52527968 212.3857421 463
-42.11175345 212.3857421 463
-39.69822721 212.3857421 463
-37.20417247 211.9270256 462
-32.45764851 212.3857421 463
-30.04412227 212.3857421 463
-27.63059604 212.3857421 463
-25.27153432 212.8444586 464
-22.85279528 212.8444586 464
-20.43405625 212.8444586 464
-18.05414333 213.3031751 465
-15.63019149 213.3031751 465
-13.20623966 213.3031751 465
-10.75910011 212.8444586 464
-8.340361073 212.8444586 464
-5.921622038 212.8444586 464
-3.502883004 212.8444586 464
-1.081807452 212.3857421 463
1.331718783 212.3857421 463
3.745245019 212.3857421 463
6.158771254 212.3857421 463
8.572297489 212.3857421 463
10.98582372 212.3857421 463
13.39934996 212.3857421 463
15.81287619 212.3857421 463
18.26576831 212.8444586 464
20.68450734 212.8444586 464
23.15303786 213.3031751 465
25.52198541 212.8444586 464
28.00094153 213.3031751 465
30.42489336 213.3031751 465
32.8488452 213.3031751 465
35.27279703 213.3031751 465
37.69674886 213.3031751 465
47.08679778 211.9270256 462
49.49511121 211.9270256 462
51.90342465 211.9270256 462
54.42929596 212.3857421 463
56.84282219 212.3857421 463
59.3843319 212.8444586 464
61.93626721 213.3031751 465
64.36021904 213.3031751 465
66.640549 212.8444586 464
69.05928804 212.8444586 464
71.3239796 212.3857421 463
73.73750584 212.3857421 463
75.986559 211.9270256 462
78.56455831 212.3857421 463
80.97808454 212.3857421 463
-210.4211865 221.7582079 478
-208.3644672 222.2221372 479
-205.8675361 222.2221372 479
-202.9460318 221.7582079 478
-200.8736741 222.2221372 479
-198.3767431 222.2221372 479
-195.879812 222.2221372 479
-192.9791589 221.7582079 478
-189.6904221 220.8303493 476
-186.815833 220.36642 475
-184.3397531 220.36642 475
-181.0979315 219.4385614 473
-178.6322773 219.4385614 473
-175.4217325 218.5107028 471
-172.9665038 218.5107028 471
-170.1492555 218.0467735 470
-167.6992397 218.0467735 470
-165.2492239 218.0467735 470
-162.799208 218.0467735 470
-160.3491922 218.0467735 470
-158.2351321 218.5107028 471
-151.5100807 219.4385614 473
-148.729322 218.9746321 472
-145.9589889 218.5107028 471
-143.5037603 218.5107028 471
-141.0485316 218.5107028 471
-138.2990497 218.0467735 470
-135.2709529 217.1189148 468
-130.3917724 217.1189148 468
-117.9412703 216.6549855 467
-115.5068929 216.6549855 467
-113.0725155 216.6549855 467
-110.8750505 217.1189148 468
-71.38108368 215.7271269 465
-68.95713185 215.7271269 465
-66.67626212 216.1910562 466
-64.24709749 216.1910562 466
-61.81793285 216.1910562 466
-59.38876822 216.1910562 466
-54.41342084 215.7271269 465
-51.8776637 215.2631976 464
-49.35233215 214.7992683 463
-46.93880592 214.7992683 463
-44.42911277 214.335339 462
-42.02079934 214.335339 462
-39.6124859 214.335339 462
-37.20417247 214.335339 462
-34.79585903 214.335339 462
-32.3875456 214.335339 462
-29.97923216 214.335339 462
-27.63059604 214.7992683 463
-25.2170698 214.7992683 463
-22.80354357 214.7992683 463
-20.43405625 215.2631976 464
-18.01531721 215.2631976 464
-15.59657818 215.2631976 464
-13.14943863 214.7992683 463
-10.73591239 214.7992683 463
-8.322386157 214.7992683 463
-5.896097806 214.335339 462
-3.48778437 214.335339 462
-1.079470935 214.335339 462
1.325966218 213.8714097 461
3.737155936 214.335339 462
6.145469372 214.335339 462
8.553782807 214.335339 462
10.96209624 214.335339 462
13.3414694 213.8714097 461
15.77872311 214.335339 462
18.22640243 214.7992683 463
20.63992866 214.7992683 463
23.0534549 214.7992683 463
25.52198541 215.2631976 464
27.88050737 214.7992683 463
30.35946348 215.2631976 464
32.8488452 215.7271269 465
35.19694155 215.2631976 464
37.61568059 215.2631976 464
39.86185747 214.335339 462
42.17867703 213.8714097 461
44.58177766 213.8714097 461
46.88295882 213.4074804 460
49.28084666 213.4074804 460
51.79107957 213.8714097 461
54.07662233 213.4074804 460
56.47451017 213.4074804 460
59.00038148 213.8714097 461
61.40348211 213.8714097 461
63.94499182 214.335339 462
66.35330526 214.335339 462
68.76161869 214.335339 462
71.16993213 214.335339 462
73.41898529 213.8714097 461
75.82208593 213.8714097 461
78.22518657 213.8714097 461
-214.9539857 223.780784 477
-212.4674803 223.780784 477
-210.4211865 224.2499261 478
-207.9294683 224.2499261 478
-205.4377501 224.2499261 478
-202.9460318 224.2499261 478
-200.4543136 224.2499261 478
-197.9625954 224.2499261 478
-195.4708771 224.2499261 478
-192.5754368 223.780784 477
-189.6904221 223.3116419 476
-186.815833 222.8424998 475
-183.5635858 221.9042156 473
-181.0979315 221.9042156 473
-178.2546192 221.4350735 472
-175.0492872 220.4967893 470
-172.5992714 220.4967893 470
-169.7872358 220.0276472 469
-167.3424328 220.0276472 469
-164.8976298 220.0276472 469
-162.4528267 220.0276472 469
-160.3491922 220.4967893 470
-158.2351321 220.9659314 471
-155.7799034 220.9659314 471
-153.6502049 221.4350735 472
-151.1897635 221.4350735 472
-148.729322 221.4350735 472
-145.6490972 220.4967893 470
-142.8944025 220.0276472 469
-140.1501333 219.5585051 468
-137.7105431 219.5585051 468
-134.9819124 219.089363 467
-132.2637072 218.6202209 466
-129.8345426 218.6202209 466
-127.405378 218.6202209 466
-124.9762133 218.6202209 466
-122.5470487 218.6202209 466
-120.1178841 218.6202209 466
-117.6887194 218.6202209 466
-115.5068929 219.089363 467
-113.0725155 219.089363 467
-110.8750505 219.5585051 468
-108.4354603 219.5585051 468
-71.22757598 217.6819367 464
-68.95713185 218.1510788 465
-66.67626212 218.6202209 466
-64.24709749 218.6202209 466
-61.81793285 218.6202209 466
-59.38876822 218.6202209 466
-56.83737268 218.1510788 465
-54.29640273 217.6819367 464
-51.76585839 217.2127946 463
-49.35233215 217.2127946 463
-46.83742621 216.7436524 462
-44.33294586 216.2745103 461
-42.02079934 216.7436524 462
-39.52674459 216.2745103 461
-37.20417247 216.7436524 462
-34.79585903 216.7436524 462
-32.3875456 216.7436524 462
-29.97923216 216.7436524 462
-27.57091872 216.7436524 462
-25.2170698 217.2127946 463
-22.80354357 217.2127946 463
-20.34597842 216.7436524 462
-17.93766498 216.7436524 462
-15.49573823 216.2745103 461
-13.0926376 216.2745103 461
-10.66634925 215.8053682 460
-8.250486493 215.3362261 459
-5.857811456 215.3362261 459
-3.457587103 214.867084 458
-1.070124866 214.867084 458
1.317337371 214.867084 458
3.71288869 215.3362261 459
6.105563727 215.3362261 459
8.498238763 215.3362261 459
10.91464128 215.8053682 460
15.77872311 216.7436524 462
18.18703655 216.7436524 462
20.59534998 216.7436524 462
23.00366342 216.7436524 462
25.46698113 217.2127946 463
27.82029029 216.7436524 462
30.22860373 216.7436524 462
42.17867703 216.2745103 461
44.48507099 215.8053682 460
46.88295882 215.8053682 460
49.28084666 215.8053682 460
51.6787345 215.8053682 460
53.95906446 215.3362261 459
56.35173949 215.3362261 459
58.74441453 215.3362261 459
61.27028584 215.8053682 460
63.80658275 216.2745103 461
66.06606151 215.8053682 460
68.46394935 215.8053682 460
70.86183719 215.8053682 460
73.25972502 215.8053682 460
75.65761286 215.8053682 460
-216.984641 225.7929345 476
-214.5033484 225.7929345 476
-212.0220558 225.7929345 476
-209.5407631 225.7929345 476
-207.0594705 225.7929345 476
-204.5781779 225.7929345 476
-199.6155926 225.7929345 476
-196.3060046 224.8442247 474
-193.8351376 224.8442247 474
-190.9605485 224.3698698 473
-189.2919128 225.3185796 475
-183.1755021 223.8955149 472
-180.3321897 223.42116 471
-177.8769611 223.42116 471
-174.6768419 222.4724502 469
-172.2320389 222.4724502 469
-169.7872358 222.4724502 469
-167.3424328 222.4724502 469
-164.5460357 221.9980953 468
-162.1064454 221.9980953 468
-160.0080237 222.4724502 469
-157.5632207 222.4724502 469
-155.1184176 222.4724502 469
-152.6736146 222.4724502 469
-149.9084943 221.9980953 468
-148.099113 222.9468051 470
-145.0293138 221.9980953 468
-141.6756869 220.5750306 465
-139.251735 220.5750306 465
-136.8277832 220.5750306 465
-134.4038314 220.5750306 465
-131.9798795 220.5750306 465
-129.5559277 220.5750306 465
-127.1319759 220.5750306 465
-124.708024 220.5750306 465
-122.2840722 220.5750306 465
-113.0725155 221.5237404 467
-110.8750505 221.9980953 468
-68.95713185 220.5750306 465
-66.67626212 221.0493855 466
-64.24709749 221.0493855 466
-61.81793285 221.0493855 466
-59.26132451 220.5750306 465
-56.71514177 220.1006757 464
-54.17938462 219.6263208 463
-51.65405308 219.1519659 462
-49.24573964 219.1519659 462
-46.83742621 219.1519659 462
-44.42911277 219.1519659 462
-41.92984523 218.677611 461
-39.6124859 219.1519659 462
-37.20417247 219.1519659 462
-34.79585903 219.1519659 462
-32.3875456 219.1519659 462
-29.97923216 219.1519659 462
-27.57091872 219.1519659 462
-25.16260529 219.1519659 462
-22.75429185 219.1519659 462
-20.3019395 218.677611 461
-17.89883887 218.677611 461
-15.46212492 218.2032561 460
-13.03583657 217.7289012 459
-10.61997381 217.2545463 458
-8.232511577 217.2545463 458
-5.832287223 216.7801914 457
-3.450037786 216.7801914 457
-1.067788349 216.7801914 457
3.696710526 216.7801914 457
6.078959963 216.7801914 457
8.479724082 217.2545463 458
15.74457003 218.677611 461
18.14767067 218.677611 461
20.55077131 218.677611 461
23.00366342 219.1519659 462
25.41197686 219.1519659 462
27.82029029 219.1519659 462
30.22860373 219.1519659 462
39.77557639 218.677611 461
42.08718315 218.2032561 460
44.48507099 218.2032561 460
46.78103935 217.7289012 459
49.17371438 217.7289012 459
51.45404435 217.2545463 458
53.84150658 217.2545463 458
56.22896882 217.2545463 458
58.61643106 217.2545463 458
61.13708957 217.7289012 459
63.5297646 217.7289012 459
65.92243964 217.7289012 459
68.31511468 217.7289012 459
70.70778971 217.7289012 459
73.10046475 217.7289012 459
-219.0048708 227.7946595 475
-216.5287909 227.7946595 475
-213.6020738 227.3150918 474
-210.6857823 226.8355241 473
-208.2201281 226.8355241 473
-205.319475 226.3559564 472
-197.5187902 225.8763887 471
-195.0635615 225.8763887 471
-193.0172678 226.3559564 472
-190.5568264 226.3559564 472
-187.6978756 225.8763887 471
-185.242647 225.8763887 471
-182.7874184 225.8763887 471
-180.3321897 225.8763887 471
-177.499303 225.396821 470
-174.6768419 224.9172532 469
-172.2320389 224.9172532 469
-169.4252161 224.4376855 468
-166.9856259 224.4376855 468
-164.5460357 224.4376855 468
-162.1064454 224.4376855 468
-159.6668552 224.4376855 468
-157.227265 224.4376855 468
-154.4569318 223.9581178 467
-152.0225544 223.9581178 467
-141.371008 222.5194147 464
-138.952269 222.5194147 464
-136.5335299 222.5194147 464
-134.1147909 222.5194147 464
-131.6960518 222.5194147 464
-129.2773128 222.5194147 464
-127.1319759 222.9989824 465
-124.708024 222.9989824 465
-122.5470487 223.4785501 466
-54.17938462 222.039847 463
-51.65405308 221.5602793 462
-49.24573964 221.5602793 462
-46.7360465 221.0807116 461
-44.33294586 221.0807116 461
-41.92984523 221.0807116 461
-39.6124859 221.5602793 462
-37.20417247 221.5602793 462
-34.79585903 221.5602793 462
-32.3875456 221.5602793 462
-29.97923216 221.5602793 462
-27.57091872 221.5602793 462
-25.16260529 221.5602793 462
-22.70504014 221.0807116 461
-20.25790059 220.6011439 460
-17.82118664 220.1215762 459
-15.39489829 219.6420085 458
-13.00743605 219.6420085 458
-10.5967861 219.1624408 457
-8.196561744 218.6828731 456
-5.819525107 218.6828731 456
-3.442488469 218.6828731 456
-1.063115314 218.2033054 455
1.311584806 218.6828731 456
3.688621444 218.6828731 456
6.065658081 218.6828731 456
8.4612094 219.1624408 457
15.71041695 220.6011439 460
18.14767067 221.0807116 461
20.55077131 221.0807116 461
22.95387194 221.0807116 461
25.35697258 221.0807116 461
27.76007321 221.0807116 461
30.16317385 221.0807116 461
34.89351964 220.6011439 460
39.68929532 220.6011439 460
42.08718315 220.6011439 460
44.38836431 220.1215762 459
46.78103935 220.1215762 459
49.06658211 219.6420085 458
51.45404435 219.6420085 458
53.72394871 219.1624408 457
56.10619815 219.1624408 457
58.48844758 219.1624408 457
60.87069702 219.1624408 457
63.25294646 219.1624408 457
65.63519589 219.1624408 457
68.16628 219.6420085 458
70.55374224 219.6420085 458
-223.4855419 229.7859588 474
-221.0146749 229.7859588 474
-218.5438079 229.7859588 474
-215.6170908 229.3011783 473
-212.7007993 228.8163978 472
-210.2403578 228.8163978 472
-207.3397047 228.3316173 471
-204.4494772 227.8468368 470
-201.5696753 227.3620563 469
-198.7002989 226.8772758 468
-196.2607087 226.8772758 468
-193.8211185 226.8772758 468
-191.7904631 227.3620563 469
-189.3456601 227.3620563 469
-186.9008571 227.3620563 469
-184.456054 227.3620563 469
-182.3993347 227.8468368 470
-179.9493189 227.8468368 470
-177.1216449 227.3620563 469
-174.6768419 227.3620563 469
-171.8648064 226.8772758 468
-169.4252161 226.8772758 468
-166.9856259 226.8772758 468
-164.1944416 226.3924953 467
-162.1064454 226.8772758 468
-159.6668552 226.8772758 468
-156.8913093 226.3924953 467
-154.1261889 225.9077148 466
-151.3714942 225.4229343 465
-140.7616502 223.9685928 462
-138.6528029 224.4533733 463
-136.2392766 224.4533733 463
-133.8257504 224.4533733 463
-131.6960518 224.9381538 464
-129.2773128 224.9381538 464
-126.8585738 224.9381538 464
-124.708024 225.4229343 465
-51.65405308 223.9685928 462
-44.33294586 223.4838123 461
-41.92984523 223.4838123 461
-39.6124859 223.9685928 462
-37.20417247 223.9685928 462
-34.79585903 223.9685928 462
-32.3875456 223.9685928 462
-29.91434205 223.4838123 461
-27.51124141 223.4838123 461
-25.10814078 223.4838123 461
-22.65578843 222.9990317 460
-20.21386168 222.5142512 459
-17.78236052 222.0294707 458
-15.36128497 221.5446902 457
-12.97903554 221.5446902 457
-10.57359838 221.0599097 456
-8.196561744 221.0599097 456
-5.80676299 220.5751292 455
-3.434939152 220.5751292 455
-1.063115314 220.5751292 455
1.308708524 220.5751292 455
3.680532362 220.5751292 455
6.065658081 221.0599097 456
13.25464856 222.0294707 458
15.64211079 222.0294707 458
18.02957303 222.0294707 458
20.41703527 222.0294707 458
22.8044975 222.0294707 458
25.19195974 222.0294707 458
27.57942198 222.0294707 458
29.96688421 222.0294707 458
32.35434645 222.0294707 458
34.74180869 222.0294707 458
37.2103392 222.5142512 459
39.60301424 222.5142512 459
41.99568927 222.5142512 459
44.29165764 222.0294707 458
46.5772004 221.5446902 457
48.85231756 221.0599097 456
51.2293542 221.0599097 456
53.48883296 220.5751292 455
55.8606568 220.5751292 455
58.10449716 220.0903487 454
60.4711082 220.0903487 454
62.97612831 220.5751292 455
65.34795215 220.5751292 455
67.71977599 220.5751292 455
70.09159983 220.5751292 455
-227.9453619 231.7668325 473
-225.4797077 231.7668325 473
-223.0140535 231.7668325 473
-220.5483992 231.7668325 473
-218.082745 231.7668325 473
-215.1612407 231.2768392 472
-212.250162 230.7868459 471
-209.7949333 230.7868459 471
-206.4592813 229.8068593 469
-204.0144783 229.8068593 469
-200.7101031 228.8268727 467
-198.2757257 228.8268727 467
-195.4219877 228.3368794 466
-192.9928231 228.3368794 466
-190.5636585 228.3368794 466
-188.5382159 228.8268727 467
-186.1038385 228.8268727 467
-184.0627575 229.316866 468
-181.6231673 229.316866 468
-176.7439868 229.316866 468
-173.9319513 228.8268727 467
-171.4975739 228.8268727 467
-169.0631964 228.8268727 467
-166.628819 228.8268727 467
-163.8428475 228.3368794 466
-161.4136829 228.3368794 466
-158.9845182 228.3368794 466
-156.2193979 227.8468861 465
-153.7954461 227.8468861 465
-150.720434 226.8668995 463
-148.3069078 226.8668995 463
-145.5782771 226.3769062 462
-143.1699636 226.3769062 462
-140.7616502 226.3769062 462
-138.3533368 226.3769062 462
-135.9450233 226.3769062 462
-133.8257504 226.8668995 463
-131.6960518 227.3568928 464
-129.2773128 227.3568928 464
-127.1319759 227.8468861 465
-124.708024 227.8468861 465
-122.5470487 228.3368794 466
-44.23677895 225.3969196 460
-41.92984523 225.8869129 461
-39.52674459 225.8869129 461
-37.12364396 225.8869129 461
-34.72054332 225.8869129 461
-32.31744268 225.8869129 461
-29.84945193 225.3969196 460
-27.39188679 224.9069263 459
-24.99921175 224.9069263 459
-22.557285 224.416933 458
-20.12578385 223.9269397 457
-17.70470829 223.4369464 456
-15.29405834 222.9469531 455
-12.89383399 222.4569598 454
-10.52722295 222.4569598 454
-8.160611912 222.4569598 454
-5.781238757 221.9669665 453
-3.419840519 221.9669665 453
-1.060778797 222.4569598 454
1.305832241 222.4569598 454
3.67244328 222.4569598 454
6.0523562 222.9469531 455
8.424180038 222.9469531 455
10.79600388 222.9469531 455
13.22570827 223.9269397 457
15.60795771 223.9269397 457
17.99020715 223.9269397 457
20.32787791 223.4369464 456
22.70491454 223.4369464 456
25.08195118 223.4369464 456
27.45898782 223.4369464 456
29.83602446 223.4369464 456
32.28370377 223.9269397 457
34.66595321 223.9269397 457
37.04820265 223.9269397 457
39.51673316 224.416933 458
41.9041954 224.416933 458
44.19495096 223.9269397 457
46.5772004 223.9269397 457
48.74518528 222.9469531 455
51.11700912 222.9469531 455
53.37127508 222.4569598 454
55.73788612 222.4569598 454
57.97651369 221.9669665 453
60.33791193 221.9669665 453
62.69931016 221.9669665 453
65.0607084 221.9669665 453
-230.4110162 234.2324868 473
-227.9453619 234.2324868 473
-225.0030064 233.7372807 472
-222.542565 233.7372807 472
-220.0821235 233.7372807 472
-217.6216821 233.7372807 472
-214.7053906 233.2420746 471
-211.7995247 232.7468685 470
-208.9040844 232.2516623 469
-206.0190696 231.7564562 468
-203.1444805 231.2612501 467
-199.8505309 230.2708379 465
-197.0020058 229.7756318 464
-194.1639063 229.2804257 463
-191.75038 229.2804257 463
-189.7457887 229.7756318 464
-187.7307717 230.2708379 465
-185.3068199 230.2708379 465
-183.2761646 230.766044 466
-181.2350836 231.2612501 467
-179.1835771 231.7564562 468
-176.3663287 231.2612501 467
-173.9319513 231.2612501 467
-170.7631089 230.2708379 465
-167.9771374 229.7756318 464
-165.5583983 229.7756318 464
-162.7880652 229.2804257 463
-160.0281577 228.7852196 462
-157.6198442 228.7852196 462
-154.8755751 228.2900135 461
-153.1339603 229.2804257 463
-150.3949039 228.7852196 462
-147.3459559 227.7948074 460
-144.9480681 227.7948074 460
-142.5501802 227.7948074 460
-140.4569713 228.2900135 461
-138.0538707 228.2900135 461
-135.65077 228.2900135 461
-133.5367099 228.7852196 462
-131.4122241 229.2804257 463
-128.9986979 229.2804257 463
-126.5851717 229.2804257 463
-124.1716454 229.2804257 463
-37.04311544 227.7948074 460
-34.56991189 227.2996013 459
-32.17723686 227.2996013 459
-29.78456182 227.2996013 459
-27.33220947 226.8043952 458
-24.89028272 226.3091891 457
-22.45878157 225.813983 456
-20.03770602 225.3187769 455
-17.66588218 225.3187769 455
-15.26044503 224.8235708 454
-12.86543347 224.3283647 453
-10.50403523 224.3283647 453
-8.142636996 224.3283647 453
-5.781238757 224.3283647 453
-3.419840519 224.3283647 453
-1.05844228 224.3283647 453
1.305832241 224.8235708 454
3.67244328 224.8235708 454
6.039054318 224.8235708 454
8.424180038 225.3187769 455
20.23872055 224.8235708 454
22.60533159 224.8235708 454
24.97194262 224.8235708 454
27.33855366 224.8235708 454
29.77059458 225.3187769 455
32.14241842 225.3187769 455
34.59009773 225.813983 456
36.96713437 225.813983 456
39.34417101 225.813983 456
41.81270152 226.3091891 457
44.09824428 225.813983 456
46.47528092 225.813983 456
48.74518528 225.3187769 455
51.00466405 224.8235708 454
53.37127508 224.8235708 454
55.61511545 224.3283647 453
57.84853021 223.8331586 452
60.20471565 223.8331586 452
62.56090109 223.8331586 452
-234.8447721 236.1977221 472
-232.3843307 236.1977221 472
-229.4367624 235.6973032 471
-226.9815338 235.6973032 471
-224.5263051 235.6973032 471
-222.0710765 235.6973032 471
-219.1495722 235.1968843 470
-216.2384935 234.6964654 469
-213.3378403 234.1960465 468
-210.4476128 233.6956276 467
-207.5678109 233.1952087 466
-204.6984346 232.6947898 465
-202.2744827 232.6947898 465
-198.9909587 231.693952 463
-196.5774325 231.693952 463
-193.7445458 231.1935331 462
-191.3362323 231.1935331 462
-189.3368538 231.693952 463
-187.3270496 232.1943709 464
-184.9083106 232.1943709 464
-182.8828681 232.6947898 465
-180.8469999 233.1952087 466
-179.1835771 234.1960465 468
-176.3663287 233.6956276 467
-173.559506 233.1952087 466
-170.7631089 232.6947898 465
-164.8447845 231.1935331 462
-162.084877 230.6931142 461
-159.3353951 230.1926953 460
-156.9375073 230.1926953 460
-154.5396194 230.1926953 460
-149.7438437 230.1926953 460
-147.0256386 229.6922764 459
-144.9480681 230.1926953 460
-142.5501802 230.1926953 460
-140.1522924 230.1926953 460
-137.7544046 230.1926953 460
-135.65077 230.6931142 461
-133.5367099 231.1935331 462
-131.1283965 231.1935331 462
-128.720083 231.1935331 462
-126.3117696 231.1935331 462
-123.9034561 231.1935331 462
-24.83581821 228.1910196 456
-22.40952986 227.6906007 455
-20.03770602 227.6906007 455
-17.62705607 227.1901818 454
-15.22683171 226.6897629 453
-12.86543347 226.6897629 453
-10.48084752 226.189344 452
-8.12466208 226.189344 452
-5.768476641 226.189344 452
-3.419840519 226.6897629 453
-1.05844228 226.6897629 453
1.302955959 226.6897629 453
3.664354197 226.6897629 453
6.025752436 226.6897629 453
8.387150675 226.6897629 453
17.79337775 226.189344 452
20.14956319 226.189344 452
22.50574863 226.189344 452
24.86193407 226.189344 452
27.21811951 226.189344 452
29.63973482 226.6897629 453
32.07177574 227.1901818 454
34.43838678 227.1901818 454
36.88606609 227.6906007 455
39.25788993 227.6906007 455
41.72120765 228.1910196 456
44.09824428 228.1910196 456
46.37336145 227.6906007 455
48.63805301 227.1901818 454
51.00466405 227.1901818 454
53.25371721 226.6897629 453
55.61511545 226.6897629 453
57.84853021 226.189344 452
60.20471565 226.189344 452
62.42249202 225.6889251 451
-236.8024483 238.1525318 471
-234.3472197 238.1525318 471
-231.891991 238.1525318 471
-228.9496355 237.6469001 470
-226.0177056 237.1412684 469
-223.5729026 237.1412684 469
-220.656611 236.6356367 468
-218.2170208 236.6356367 468
-215.3163677 236.130005 467
-212.4261402 235.6243733 466
-209.5463382 235.1187416 465
-206.6769619 234.6131099 464
-203.8180112 234.1074782 463
-201.404485 234.1074782 463
-198.5611726 233.6018465 462
-195.7282859 233.0962148 461
-193.3251853 233.0962148 461
-190.9220846 233.0962148 461
-188.518984 233.0962148 461
-186.5196055 233.6018465 462
-184.5098013 234.1074782 463
-182.0962751 234.1074782 463
-180.4589162 235.1187416 465
-178.8007062 236.130005 467
-175.6110126 235.1187416 465
-173.1870607 235.1187416 465
-169.6614114 233.6018465 462
-166.5290586 232.5905831 460
-164.1311708 232.5905831 460
-161.3816888 232.0849514 459
-158.6426325 231.5793197 458
-156.2551703 231.5793197 458
-153.867708 231.5793197 458
-151.4802458 231.5793197 458
-149.4183136 232.0849514 459
-147.0256386 232.0849514 459
-144.6329636 232.0849514 459
-142.5501802 232.5905831 460
-140.1522924 232.5905831 460
-137.7544046 232.5905831 460
-135.65077 233.0962148 461
-133.2476694 233.0962148 461
-130.8445688 233.0962148 461
-128.4414681 233.0962148 461
-126.0383675 233.0962148 461
-43.65977749 229.5567929 454
-41.29316645 229.5567929 454
-39.01229672 230.0624246 455
-24.78135369 230.0624246 455
-22.36027814 229.5567929 454
-19.9936671 229.5567929 454
-17.58822995 229.0511612 453
-15.1932184 228.5455295 452
-12.83703296 228.5455295 452
-10.48084752 228.5455295 452
-8.12466208 228.5455295 452
-5.768476641 228.5455295 452
-3.412291202 228.5455295 452
-1.05844228 229.0511612 453
1.302955959 229.0511612 453
3.656265115 228.5455295 452
6.012450554 228.5455295 452
8.350121312 228.0398978 451
22.40616567 227.5342661 450
24.75192551 227.5342661 450
27.09768535 227.5342661 450
29.50887507 228.0398978 451
31.85984771 228.0398978 451
34.28667582 228.5455295 452
36.72392954 229.0511612 453
39.08532778 229.0511612 453
41.53821989 229.5567929 454
43.90483093 229.5567929 454
46.16952249 229.0511612 453
48.53092073 229.0511612 453
50.7799739 228.5455295 452
53.13615934 228.5455295 452
55.3695741 228.0398978 451
57.72054674 228.0398978 451
-240.6865238 239.5860714 469
-238.2417208 239.5860714 469
-235.7969177 239.5860714 469
-233.3521147 239.5860714 469
-230.414972 239.0752269 468
-227.9753817 239.0752269 468
-225.0538774 238.5643824 467
-222.6195 238.5643824 467
-219.7136341 238.0535379 466
-217.2844694 238.0535379 466
-214.3942419 237.5426934 465
-211.9702901 237.5426934 465
-208.6450637 236.5210044 463
-205.786113 236.0101599 462
-203.3777995 236.0101599 462
-200.9694861 236.0101599 462
-198.1313866 235.4993154 461
-195.3037126 234.9884709 460
-192.9058248 234.9884709 460
-190.507937 234.9884709 460
-188.518984 235.4993154 461
-186.1158834 235.4993154 461
-184.111292 236.0101599 462
-181.7029786 236.0101599 462
