# .PCD v0.7 - Point Cloud Data file format
VERSION 0.7
FIELDS x y z
SIZE 4 4 4
TYPE F F F
COUNT 1 1 1
WIDTH 1099
HEIGHT 1
VIEWPOINT 0 0 0 1 0 0 0
POINTS 1099
DATA ascii
436.4732598 3.121761935 600
443.996949 3.152979555 606
447.1559056 3.152979555 606
448.0855806 3.137370745 603
447.4873657 3.111356062 598
446.0835033 3.080138443 592
446.893284 3.064529633 589
446.9078428 3.043717887 585
449.1881728 3.03851495 584
449.9093359 3.022906141 581
452.9379725 3.022906141 581
455.9666091 3.022906141 581
458.9952457 3.022906141 581
462.0238823 3.022906141 581
463.4516496 3.012500267 579
465.6642132 3.007297331 578
467.0554909 2.996891458 576
469.2419905 2.991688521 575
469.7754928 2.976079712 572
471.1042169 2.965673838 570
421.3956842 6.166115832 592
426.632751 6.197363041 595
431.1788521 6.218194513 597
431.3810718 6.176531568 593
434.4722619 6.176531568 593
434.611928 6.134868623 589
434.7098917 6.093205678 585
442.9975259 6.166115832 592
436.2877507 6.030711261 579
424.8900493 5.832812273 560
423.9894919 5.780733592 555
424.5751222 5.749486384 552
425.9038464 5.728654911 550
442.8033879 5.916138163 568
449.6882392 5.968216844 573
455.0452005 5.999464053 576
459.6382168 6.020295525 578
453.0459994 5.895306691 566
462.4416235 5.97863258 574
465.4337705 5.97863258 574
468.4259175 5.97863258 574
468.1329211 5.936969635 570
469.4512197 5.916138163 568
415.2237294 9.252093221 592
419.016311 9.267721757 593
422.8193182 9.283350293 594
427.7437946 9.189579078 588
430.8089208 9.189579078 588
421.8551203 8.689465931 556
417.6527018 8.486294965 543
418.9345107 8.455037893 541
417.0771347 8.361266678 535
446.3286749 8.658208859 554
458.9468886 8.845751289 566
461.0812602 8.830122753 565
464.026492 8.830122753 565
466.9717238 8.830122753 565
410.4337063 12.37975328 594
412.8339306 12.35891195 593
415.9251208 12.35891195 593
419.7229152 12.37975328 594
422.8193182 12.37975328 594
425.1986914 12.35891195 593
419.1049212 11.75451322 564
419.0517137 11.67114787 560
418.9568037 11.58778253 556
417.302727 11.46273452 550
417.1139866 11.37936918 546
413.0377548 11.19179716 537
411.965175 11.08759048 532
410.8404673 10.9833838 527
411.233224 10.9208598 524
411.594704 10.85833579 521
413.5153507 10.83749445 520
412.2238334 10.73328778 515
454.552676 11.60862387 557
459.098777 11.65030654 559
462.8392307 11.67114787 560
399.1082668 15.16350665 582
408.3608088 15.39799386 591
412.137752 15.424048 592
415.2237294 15.424048 592
417.6031025 15.39799386 591
419.9720501 15.37193973 590
421.7896979 15.21561492 584
413.1601705 14.48609913 556
414.5618739 14.43399086 554
414.4356872 14.32977432 550
413.5090658 14.19950365 545
414.0582065 14.12134124 542
412.2685969 13.96501643 536
412.7395457 13.88685403 533
412.3996342 13.78263749 529
412.0180203 13.67842095 525
413.174722 13.62631268 523
413.5153507 13.54815027 520
413.8247027 13.46998786 517
419.7423098 13.5742044 521
451.2883839 14.40793673 553
450.8859188 14.30372019 549
455.400743 14.35582846 551
383.585984 17.75961895 568
391.991176 18.00975443 576
397.7367608 18.13482217 580
403.5240479 18.25988991 584
407.2645015 18.29115685 585
409.6125979 18.25988991 584
411.9502687 18.22862298 583
412.1420627 18.10355524 579
411.5751245 17.94722056 574
409.5115731 17.72835202 567
405.8345677 17.19681413 550
405.7292322 17.07174639 546
406.3305009 16.97794558 543
407.6540123 16.91541172 541
409.7154047 16.88414478 540
411.0024264 16.82161091 538
411.4994391 16.72781011 535
411.965175 16.6340093 532
413.1792176 16.57147543 530
414.3724089 16.50894156 528
415.5447491 16.44640769 526
415.9010162 16.35260689 523
417.0264412 16.29007302 521
426.9931366 16.57147543 530
432.1885011 16.66527624 533
437.4151424 16.75907704 536
445.9582038 16.97794558 543
451.2682499 17.07174639 546
379.2848845 20.64752968 566
384.2613114 20.75696889 569
391.991176 21.01232703 576
397.7367608 21.15824596 580
401.4511504 21.1947257 581
404.479787 21.1947257 581
406.8070322 21.15824596 580
409.1238517 21.12176623 579
410.0066116 21.01232703 576
410.1410649 20.86640809 572
403.733632 20.39217154 559
402.2828544 20.17329314 553
402.9675279 20.06385393 550
402.8830436 19.91793499 546
404.2430446 19.84497553 544
405.5821943 19.77201606 542
407.6540123 19.73553632 541
409.7154047 19.69905659 540
411.7663714 19.66257685 539
411.4994391 19.51665792 535
412.7395457 19.44369845 533
414.7383844 19.40721871 532
415.9420014 19.33425924 530
417.9147762 19.29777951 529
419.0819035 19.22482004 527
426.9931366 19.33425924 530
431.3776409 19.40721871 532
435.7829964 19.48017818 534
443.4943463 19.69905659 540
448.788754 19.80849579 543
380.6251138 23.68135935 568
386.9626211 23.88982202 573
391.991176 24.01489962 576
396.3652547 24.09828469 578
399.3782529 24.09828469 578
402.3912511 24.09828469 578
403.300075 23.97320709 575
404.8842263 23.88982202 573
406.4475264 23.80643695 571
402.9707665 23.43120415 562
401.5669041 23.18104894 556
400.1004881 22.93089374 550
400.7695232 22.80581613 547
400.6694005 22.639046 543
402.7568569 22.59735346 542
404.085581 22.5139684 540
406.9004928 22.5139684 540
408.9566724 22.47227586 539
411.7663714 22.47227586 539
412.2685969 22.34719826 536
414.2882869 22.30550573 535
416.2975513 22.26381319 534
417.5115939 22.18042812 532
419.4947942 22.13873559 531
422.2627909 22.13873559 531
434.9669233 22.22212066 533
441.8517747 22.43058333 538
445.4827595 22.47227586 539
381.2952284 26.68913488 569
385.6119663 26.78294555 571
389.9495553 26.87675622 573
392.9364895 26.87675622 573
395.9234237 26.87675622 573
401.3512051 26.64222955 568
402.1766242 26.50151355 565
402.9707665 26.36079754 562
399.4001762 25.93864954 553
398.6455773 25.70412287 548
399.3041868 25.56340687 545
399.9315195 25.42269087 542
402.0137631 25.37578554 541
403.3372744 25.28197487 539
406.1469734 25.28197487 539
408.9566724 25.28197487 539
411.0024264 25.23506954 538
413.0377548 25.1881642 537
415.8370282 25.1881642 537
417.8567182 25.14125887 536
420.6507788 25.14125887 536
421.8648213 25.0474482 534
423.0580127 24.95363753 532
425.0307875 24.9067322 531
434.9669233 25.00054287 533
439.3879172 25.09435353 535
443.0032636 25.14125887 536
383.585984 29.60309974 568
390.1934774 29.65521788 569
392.4685945 29.60309974 568
391.9485716 29.34250908 563
392.077812 29.13403654 559
394.2851628 29.08191841 558
395.7702709 28.97768214 556
396.517498 28.82132774 553
395.0667204 28.50861894 547
395.7357555 28.35226454 544
396.3735138 28.19591014 541
398.4557574 28.14379201 540
399.7844816 28.03955574 538
401.8406611 27.98743761 537
404.6399346 27.98743761 537
407.439208 27.98743761 537
410.2384814 27.98743761 537
413.0377548 27.98743761 537
415.8370282 27.98743761 537
418.6363016 27.98743761 537
422.2203712 28.03955574 538
424.2348484 27.98743761 537
426.2389 27.93531948 536
428.232526 27.88320134 535
430.2157264 27.83108321 534
434.6210818 27.93531948 536
436.5990694 27.88320134 535
439.3879172 27.88320134 535
442.176765 27.88320134 535
389.2722463 31.81866781 555
390.7521416 31.70400595 553
392.9230028 31.64667501 552
394.3664085 31.53201315 550
395.7889631 31.41735128 548
395.0083001 31.13069662 543
396.3735138 31.01603475 541
398.4557574 30.95870382 540
400.5275754 30.90137289 539
402.5889678 30.84404195 538
404.6399346 30.78671102 537
406.6804757 30.72938009 536
410.2384814 30.78671102 537
413.0377548 30.78671102 537
415.8370282 30.78671102 537
418.6363016 30.78671102 537
421.435575 30.78671102 537
425.0248574 30.84404195 538
427.8293436 30.84404195 538
429.8333952 30.78671102 537
432.6326686 30.78671102 537
434.6210818 30.72938009 536
436.5990694 30.67204915 535
439.3879172 30.67204915 535
442.176765 30.67204915 535
387.7714998 34.83685908 557
388.5708549 34.64922788 554
390.7521416 34.58668415 553
392.2111858 34.46159669 551
393.6493787 34.33650922 549
395.0667204 34.21142175 547
395.0083001 33.96124682 543
395.6408456 33.77361563 540
397.7178764 33.71107189 539
399.7844816 33.64852816 538
401.8406611 33.58598443 537
404.6399346 33.58598443 537
406.6804757 33.5234407 536
409.4745363 33.5234407 536
412.2685969 33.5234407 536
415.0626576 33.5234407 536
417.8567182 33.5234407 536
420.6507788 33.5234407 536
424.2348484 33.58598443 537
427.0341218 33.58598443 537
429.8333952 33.58598443 537
431.8270212 33.5234407 536
434.6210818 33.5234407 536
436.5990694 33.46089696 535
439.3879172 33.46089696 535
441.3502664 33.39835323 534
388.5708549 37.53711889 554
390.7521416 37.46936235 553
392.2111858 37.33384929 551
393.6493787 37.19833622 549
395.0667204 37.06282316 547
394.2808447 36.7240405 542
396.3735138 36.65628397 541
397.7178764 36.5207709 539
400.5275754 36.5207709 539
402.5889678 36.45301437 538
404.6399346 36.38525784 537
406.6804757 36.31750131 536
409.4745363 36.31750131 536
412.2685969 36.31750131 536
414.2882869 36.24974477 535
417.0771347 36.24974477 535
419.8659825 36.24974477 535
422.6548304 36.24974477 535
425.4436782 36.24974477 535
428.232526 36.24974477 535
431.0213738 36.24974477 535
433.8102216 36.24974477 535
435.7829964 36.18198824 534
438.5666314 36.18198824 534
441.3502664 36.18198824 534
391.4993687 40.13313256 550
392.9323489 39.9871939 548
394.3444778 39.84125523 546
395.0083001 39.62234724 543
396.3735138 39.47640857 541
398.4557574 39.40343924 540
401.2706692 39.40343924 540
402.5889678 39.25750058 538
404.6399346 39.18453125 537
406.6804757 39.11156191 536
408.7105913 39.03859258 535
410.7302813 38.96562325 534
411.965175 38.81968459 532
414.7383844 38.81968459 532
416.7267976 38.74671525 531
419.4947942 38.74671525 531
422.2627909 38.74671525 531
425.8312221 38.81968459 532
428.6044315 38.81968459 532
432.1885011 38.89265392 533
435.7829964 38.96562325 534
439.3879172 39.03859258 535
442.176765 39.03859258 535
395.7357555 42.53107958 544
397.8388503 42.45289744 543
399.9315195 42.37471531 542
402.0137631 42.29653318 541
404.085581 42.21835105 540
405.393454 42.06198679 538
407.439208 41.98380465 537
409.4745363 41.90562252 536
410.7302813 41.74925826 534
411.1908044 41.51471187 531
413.958801 41.51471187 531
416.7267976 41.51471187 531
418.7047852 41.43652973 530
422.2627909 41.51471187 531
425.0307875 41.51471187 531
428.6044315 41.592894 532
432.1885011 41.67107613 533
435.7829964 41.74925826 534
439.3879172 41.82744039 535
442.176765 41.82744039 535
375.2641967 46.70116148 560
395.7357555 45.36684258 544
398.5715185 45.36684258 544
400.6694005 45.28344765 543
402.7568569 45.20005272 542
404.085581 45.03326286 540
406.1469734 44.94986793 539
408.1979402 44.86647299 538
409.4745363 44.69968313 536
410.7302813 44.53289327 534
411.1908044 44.28270848 531
413.1792176 44.19931355 530
415.1572052 44.11591861 529
417.9147762 44.11591861 529
420.6723472 44.11591861 529
424.2303528 44.19931355 530
427.7987841 44.28270848 531
431.3776409 44.36610341 532
434.9669233 44.44949834 533
438.5666314 44.53289327 534
442.176765 44.6162882 535
374.594082 49.53172155 559
376.1573821 49.35450609 557
397.8388503 48.11399786 543
399.9315195 48.02539013 542
402.7568569 48.02539013 542
404.085581 47.84817467 540
405.393454 47.6709592 538
407.439208 47.58235147 537
408.7105913 47.40513601 535
409.9611235 47.22792055 533
409.6420631 46.87348963 529
411.6200507 46.78488189 528
414.3724089 46.78488189 528
416.3347581 46.69627416 527
419.0819035 46.69627416 527
421.8290489 46.69627416 527
426.9931366 46.96209736 530
430.5667807 47.05070509 531
434.9669233 47.22792055 533
438.5666314 47.31652828 534
441.3502664 47.31652828 534
372.5837381 52.16421496 556
374.1313998 51.9765739 554
374.9776701 51.69511231 551
397.8388503 50.94454806 543
397.7178764 50.56926594 539
399.7844816 50.47544541 538
401.8406611 50.38162488 537
403.8864151 50.28780435 536
405.1630113 50.10016329 534
406.4187562 49.91252223 532
409.1919656 49.91252223 532
408.0933219 49.44341958 527
410.0608839 49.34959905 526
412.8028165 49.34959905 526
414.7547401 49.25577852 525
417.4914599 49.25577852 525
420.2281797 49.25577852 525
424.5761944 49.44341958 527
428.9450602 49.63106064 529
433.3347773 49.8187017 531
437.7453456 50.00634276 533
441.3502664 50.10016329 534
371.9136235 54.96349823 555
372.780745 54.66639824 552
373.6165897 54.36929825 549
375.1069106 54.17123159 547
396.9799954 53.27993162 538
398.2982939 53.08186496 536
401.0923545 53.08186496 536
401.6258568 52.78476497 533
402.8868146 52.58669831 531
404.8908662 52.48766498 530
406.1153343 52.28959832 528
408.0933219 52.19056499 527
409.2813004 51.99249833 525
411.233224 51.893465 524
413.964731 51.893465 524
416.6962381 51.893465 524
419.4277451 51.893465 524
423.7705469 52.09153166 526
428.1342 52.28959832 528
431.7026312 52.38863165 529
436.9240597 52.68573164 532
440.5237678 52.78476497 533
370.5733942 57.64810978 553
371.4300901 57.33537139 550
372.2555092 57.022633 547
372.3638985 56.60564848 543
395.5042333 55.87592557 536
396.8121062 55.66743331 534
398.8474346 55.56318718 533
400.118818 55.35469492 531
402.1280823 55.25044879 530
403.3629761 55.04195653 528
404.5770186 54.83346427 526
406.5445806 54.72921814 525
407.7221336 54.52072588 523
410.4484278 54.52072588 523
413.174722 54.52072588 523
415.9010162 54.52072588 523
418.6273104 54.52072588 523
422.9648995 54.72921814 525
427.3233398 54.9377104 527
430.8865582 55.04195653 528
436.1027739 55.35469492 531
439.6972691 55.45894105 532
369.2331649 60.31187012 551
370.0794352 59.98349333 548
370.8944287 59.65511654 545
370.3066393 59.1078219 540
372.4305853 58.99836297 539
374.5441057 58.88890404 538
394.5828247 58.12269153 531
397.3508214 58.12269153 531
399.3652985 58.0132326 530
400.6106179 57.79431474 528
401.835086 57.57539688 526
404.5770186 57.57539688 526
406.5445806 57.46593795 525
406.9425502 57.13756117 522
409.6636316 57.13756117 522
412.384713 57.13756117 522
415.1057944 57.13756117 522
417.8268758 57.13756117 522
422.1592521 57.35647902 524
426.5124795 57.57539688 526
430.0704852 57.68485581 527
434.4602023 57.90377367 529
438.0442719 58.0132326 530
365.8825917 62.61076408 546
367.3781255 62.38142062 544
368.1722678 62.03740543 541
368.9351333 61.69339025 538
370.3576878 61.46404679 536
372.4555698 61.34937506 535
373.8416347 61.1200316 533
392.3535432 60.54667295 528
394.3575948 60.43200123 527
396.3512208 60.3173295 526
398.3344212 60.20265777 525
400.307196 60.08798604 524
402.2695452 59.97331431 523
404.9958394 59.97331431 523
406.1629667 59.74397085 521
408.8788353 59.74397085 521
411.594704 59.74397085 521
414.3105726 59.74397085 521
417.0264412 59.74397085 521
420.5479572 59.85864258 522
424.0798989 59.97331431 523
428.4383391 60.20265777 525
431.9963448 60.3173295 526
437.2177733 60.66134468 529
364.5423625 65.21718363 544
365.3521432 64.85753004 541
366.8111873 64.61776098 539
368.2493802 64.37799193 537
369.666722 64.13822287 535
371.7593911 64.01833834 534
373.1402433 63.77856928 532
375.2068485 63.65868475 531
395.5977014 62.93937758 525
397.575689 62.81949305 524
399.5432509 62.69960852 523
402.2695452 62.69960852 523
404.2214687 62.57972399 522
406.1629667 62.45983947 521
408.8788353 62.45983947 521
411.594704 62.45983947 521
414.3105726 62.45983947 521
417.0264412 62.45983947 521
420.5479572 62.57972399 522
423.2690386 62.57972399 522
427.6222661 62.81949305 524
431.1750589 62.93937758 525
435.564776 63.17914664 527
363.2021332 67.80275198 542
364.0014883 67.42745999 539
366.1306471 67.30236266 538
367.5636272 67.05216801 536
368.9757561 66.80197335 534
371.0632125 66.67687602 533
373.1402433 66.55177869 532
375.2068485 66.42668136 531
392.1126749 65.55100007 524
394.0906625 65.42590274 523
396.8169567 65.42590274 523
398.7793059 65.30080541 522
401.5003873 65.30080541 522
404.2214687 65.30080541 522
406.1629667 65.17570808 521
408.8788353 65.17570808 521
411.594704 65.17570808 521
414.3105726 65.17570808 521
417.0264412 65.17570808 521
420.5479572 65.30080541 522
424.0798989 65.42590274 523
426.8061931 65.42590274 523
430.3537731 65.55100007 524
434.7382774 65.80119472 526
362.5320186 70.49777925 541
363.3261609 70.10684887 538
365.4501068 69.97653874 537
366.8778742 69.71591849 535
368.2847903 69.45529823 533
370.3670339 69.3249881 532
372.4388519 69.19467797 531
375.2068485 69.19467797 531
376.551211 68.93405772 529
391.3643683 68.15219695 523
393.3371431 68.02188682 522
396.0582245 68.02188682 522
398.0153609 67.89157669 521
401.5003873 68.02188682 522
403.4470981 67.89157669 521
406.1629667 67.89157669 521
408.8788353 67.89157669 521
411.594704 67.89157669 521
415.1057944 68.02188682 522
417.8268758 68.02188682 522
420.5479572 68.02188682 522
424.0798989 68.15219695 523
426.8061931 68.15219695 523
430.3537731 68.28250708 524
434.7382774 68.54312733 526
360.5216746 72.91133508 538
362.6508334 72.77581215 537
364.7695666 72.64028922 536
366.8778742 72.5047663 535
368.2847903 72.23372044 533
370.3670339 72.09819751 532
372.4388519 71.96267459 531
375.2068485 71.96267459 531
376.551211 71.69162873 529
384.4360178 70.60744531 521
389.1194484 70.47192238 520
391.8301042 70.47192238 520
394.54076 70.47192238 520
398.0153609 70.60744531 521
400.7312295 70.60744531 521
403.4470981 70.60744531 521
406.1629667 70.60744531 521
408.8788353 70.60744531 521
411.594704 70.60744531 521
415.1057944 70.74296824 522
417.8268758 70.74296824 522
420.5479572 70.74296824 522
423.2690386 70.74296824 522
426.8061931 70.87849116 523
430.3537731 71.01401409 524
434.7382774 71.28505995 526
362.6508334 75.57508556 537
364.7695666 75.43434983 536
366.8778742 75.29361411 535
368.2847903 75.01214265 533
370.3670339 74.87140692 532
372.4388519 74.7306712 531
375.2068485 74.7306712 531
377.263028 74.58993547 530
385.6656988 73.04184247 519
388.3711418 73.04184247 519
391.8301042 73.1825782 520
394.54076 73.1825782 520
398.0153609 73.32331392 521
400.7312295 73.32331392 521
403.4470981 73.32331392 521
406.1629667 73.32331392 521
409.6636316 73.46404965 522
412.384713 73.46404965 522
415.1057944 73.46404965 522
417.8268758 73.46404965 522
420.5479572 73.46404965 522
424.0798989 73.60478538 523
426.8061931 73.60478538 523
429.5324873 73.60478538 523
433.9117788 73.88625683 525
361.975506 78.22841044 536
364.0890264 78.08246192 535
366.8778742 78.08246192 535
368.9757561 77.93651339 534
370.3670339 77.64461633 532
372.4388519 77.49866781 531
375.2068485 77.49866781 531
377.9748451 77.49866781 531
379.308782 77.20677075 529
385.6656988 75.74728548 519
388.3711418 75.74728548 519
391.0765848 75.74728548 519
393.7820278 75.74728548 519
397.2514158 75.89323401 520
400.7312295 76.03918254 521
403.4470981 76.03918254 521
406.9425502 76.18513106 522
409.6636316 76.18513106 522
412.384713 76.18513106 522
415.9010162 76.33107959 523
417.8268758 76.18513106 522
421.3536047 76.33107959 523
424.0798989 76.33107959 523
426.8061931 76.33107959 523
429.5324873 76.33107959 523
433.9117788 76.62297665 525
364.0890264 80.87130972 535
366.8778742 80.87130972 535
368.2847903 80.56898707 533
371.0632125 80.56898707 533
373.1402433 80.41782574 532
375.2068485 80.26666442 531
377.9748451 80.26666442 531
380.0258119 80.11550309 530
381.3441104 79.81318044 528
382.9602557 78.4527285 519
384.9226049 78.30156717 518
387.6228351 78.30156717 518
391.0765848 78.4527285 519
393.7820278 78.4527285 519
397.2514158 78.60388983 520
400.7312295 78.75505115 521
403.4470981 78.75505115 521
406.9425502 78.90621248 522
409.6636316 78.90621248 522
412.384713 78.90621248 522
415.1057944 78.90621248 522
417.8268758 78.90621248 522
421.3536047 79.05737381 523
424.0798989 79.05737381 523
426.8061931 79.05737381 523
430.3537731 79.20853513 524
433.9117788 79.35969646 525
366.1921211 83.50378341 534
368.9757561 83.50378341 534
371.0632125 83.34740928 533
373.8416347 83.34740928 533
375.9134527 83.19103516 532
377.9748451 83.03466103 531
380.7428417 83.03466103 531
382.066353 82.72191278 529
382.9602557 81.15817151 519
384.9226049 81.00179739 518
387.6228351 81.00179739 518
390.3230654 81.00179739 518
393.0232956 81.00179739 518
395.7235258 81.00179739 518
399.9620717 81.31454564 520
403.4470981 81.47091977 521
406.1629667 81.47091977 521
409.6636316 81.62729389 522
412.384713 81.62729389 522
415.1057944 81.62729389 522
417.8268758 81.62729389 522
420.5479572 81.62729389 522
423.2690386 81.62729389 522
426.8061931 81.78366802 523
429.5324873 81.78366802 523
432.2587815 81.78366802 523
366.1921211 86.28741842 534
368.9757561 86.28741842 534
371.7593911 86.28741842 534
373.8416347 86.12583149 533
375.9134527 85.96424457 532
377.9748451 85.80265764 531
380.7428417 85.80265764 531
382.066353 85.47948379 529
382.9602557 83.86361453 519
384.9226049 83.7020276 518
387.6228351 83.7020276 518
390.3230654 83.7020276 518
393.0232956 83.7020276 518
395.7235258 83.7020276 518
399.1929138 83.86361453 519
402.6727275 84.02520146 520
406.1629667 84.18678838 521
408.8788353 84.18678838 521
411.594704 84.18678838 521
414.3105726 84.18678838 521
417.0264412 84.18678838 521
419.7423098 84.18678838 521
423.2690386 84.34837531 522
425.9901201 84.34837531 522
428.7112015 84.34837531 522
430.6057843 84.18678838 521
368.9757561 89.07105343 534
371.7593911 89.07105343 534
373.8416347 88.9042537 533
375.9134527 88.73745398 532
377.9748451 88.57065425 531
380.7428417 88.57065425 531
382.066353 88.2370548 529
383.3690132 87.90345535 527
383.6981368 86.73585727 520
384.9226049 86.40225782 518
387.6228351 86.40225782 518
390.3230654 86.40225782 518
393.0232956 86.40225782 518
395.7235258 86.40225782 518
399.1929138 86.56905754 519
401.8983568 86.56905754 519
404.6037999 86.56905754 519
408.0940391 86.73585727 520
410.0146859 86.56905754 519
412.7201289 86.56905754 519
415.4255719 86.56905754 519
418.1310149 86.56905754 519
421.6473182 86.73585727 520
424.357974 86.73585727 520
427.0686298 86.73585727 520
428.952787 86.56905754 519
368.9757561 91.85468844 534
371.7593911 91.85468844 534
373.8416347 91.68267591 533
375.9134527 91.51066339 532
377.9748451 91.33865086 531
380.7428417 91.33865086 531
382.7885957 91.16663834 530
384.0964686 90.82261329 528
393.0232956 89.10248803 518
395.7235258 89.10248803 518
399.1929138 89.27450056 519
401.8983568 89.27450056 519
404.6037999 89.27450056 519
407.3092429 89.27450056 519
410.0146859 89.27450056 519
412.7201289 89.27450056 519
414.6251373 89.10248803 518
417.3253675 89.10248803 518
420.0255977 89.10248803 518
422.7258279 89.10248803 518
425.4260582 89.10248803 518
427.2997897 88.93047551 517
371.0632125 94.46109812 533
373.1402433 94.2838728 532
375.2068485 94.10664747 531
377.9748451 94.10664747 531
380.7428417 94.10664747 531
382.7885957 93.92942215 530
384.823924 93.75219682 529
384.4360178 92.33439422 521
386.4087926 92.1571689 520
393.7820278 91.97994358 519
396.4874708 91.97994358 519
399.1929138 91.97994358 519
401.8983568 91.97994358 519
404.6037999 91.97994358 519
406.5244467 91.80271825 518
409.2246769 91.80271825 518
411.9249071 91.80271825 518
413.8247027 91.62549293 517
415.7140727 91.4482676 516
418.4038773 91.4482676 516
421.0936819 91.4482676 516
422.9622007 91.27104228 515
424.8202939 91.09381695 514
371.0632125 97.23952033 533
373.1402433 97.05708221 532
375.2068485 96.87464408 531
377.9748451 96.87464408 531
380.7428417 96.87464408 531
382.7885957 96.69220596 530
387.8949803 95.23270096 522
395.2994923 95.05026284 521
398.0153609 95.05026284 521
400.7312295 95.05026284 521
403.4470981 95.05026284 521
404.6037999 94.68538659 519
406.5244467 94.50294847 518
409.2246769 94.50294847 518
411.1296853 94.32051034 517
413.024268 94.13807222 516
414.9084252 93.95563409 515
417.593017 93.95563409 515
420.2776089 93.95563409 515
422.1409149 93.77319597 514
423.9937952 93.59075784 513
371.0632125 100.0179425 533
373.1402433 99.83029162 532
375.2068485 99.64264069 531
377.9748451 99.64264069 531
380.7428417 99.64264069 531
382.7885957 99.45498977 530
395.2994923 97.76613145 521
398.0153609 97.76613145 521
400.7312295 97.76613145 521
403.4470981 97.76613145 521
404.6037999 97.39082961 519
406.5244467 97.20317868 518
409.2246769 97.20317868 518
411.1296853 97.01552776 517
413.024268 96.82787683 516
414.9084252 96.64022591 515
416.7821568 96.45257499 514
419.4615358 96.45257499 514
421.319629 96.26492406 513
423.9937952 96.26492406 513
372.4388519 102.4106373 531
375.2068485 102.4106373 531
377.9748451 102.4106373 531
380.0258119 102.2177736 530
396.0582245 100.6748638 522
398.0153609 100.4820001 521
400.7312295 100.4820001 521
402.6727275 100.2891363 520
405.3833833 100.2891363 520
406.5244467 99.9034089 518
409.2246769 99.9034089 518
411.1296853 99.71054517 517
413.024268 99.51768145 516
414.1027778 99.131954 514
416.7821568 99.131954 514
419.4615358 99.131954 514
421.319629 98.93909028 513
423.1672966 98.74622655 512
372.4388519 105.1786339 531
374.5002442 104.9805574 530
377.263028 104.9805574 530
380.0258119 104.9805574 530
396.8169567 103.5940217 523
398.7793059 103.3959452 522
400.7312295 103.1978687 521
403.4470981 103.1978687 521
405.3833833 102.9997922 520
406.5244467 102.6036391 518
409.2246769 102.6036391 518
411.1296853 102.4055626 517
413.024268 102.2074861 516
414.9084252 102.0094095 515
416.7821568 101.811333 514
419.4615358 101.811333 514
420.4983432 101.41518 512
422.340798 101.2171034 511
372.4388519 107.9466305 531
374.5002442 107.7433412 530
377.263028 107.7433412 530
396.0582245 106.1170266 522
398.0153609 105.9137373 521
400.7312295 105.9137373 521
402.6727275 105.710448 520
404.6037999 105.5071587 519
406.5244467 105.3038693 518
408.4346678 105.10058 517
410.3344634 104.8972907 516
413.024268 104.8972907 516
414.9084252 104.6940014 515
416.7821568 104.490712 514
419.4615358 104.490712 514
420.4983432 104.0841334 512
423.1672966 104.0841334 512
373.79364 110.2976229 529
376.551211 110.2976229 529
398.0153609 108.6296059 521
399.9620717 108.4211038 520
402.6727275 108.4211038 520
403.8242164 108.0040995 518
405.7396504 107.7955974 517
407.6446588 107.5870953 516
409.5392416 107.3785932 515
412.2238334 107.3785932 515
414.1027778 107.1700911 514
416.7821568 107.1700911 514
418.6454628 106.9615889 513
420.4983432 106.7530868 512
422.340798 106.5445847 511
373.79364 113.0551939 529
396.0582245 111.5591894 522
397.2514158 111.1317596 520
399.1929138 110.9180447 519
401.8983568 110.9180447 519
403.8242164 110.7043298 518
404.9548542 110.2768999 516
406.8546498 110.063185 515
409.5392416 110.063185 515
411.4233988 109.8494701 514
414.1027778 109.8494701 514
415.9712966 109.6357551 513
418.6454628 109.6357551 513
420.4983432 109.4220402 512
422.340798 109.2083253 511
371.6738273 115.1559818 526
386.5561854 110.7774273 506
393.808809 112.0909936 512
398.0265037 112.5288491 514
400.7058827 112.5288491 514
402.6004655 112.3099214 513
405.2746317 112.3099214 513
407.9487979 112.3099214 513
410.6229642 112.3099214 513
412.4914829 112.0909936 512
414.3495761 111.8720659 511
417.0133168 111.8720659 511
418.8557715 111.6531382 510
420.6878007 111.4342105 509
389.193862 113.4151039 506
396.4777624 114.7599471 512
399.1467159 114.7599471 512
401.8156693 114.7599471 512
403.6946137 114.5358065 511
406.3583543 114.5358065 511
409.0220949 114.5358065 511
411.6858355 114.5358065 511
413.5387159 114.311666 510
416.1972437 114.311666 510
418.0344857 114.0875255 509
419.8613021 113.863385 508
393.3802799 116.5114872 508
396.8079656 116.7408405 509
399.4612806 116.7408405 509
402.1145956 116.7408405 509
404.7679106 116.7408405 509
407.4212256 116.7408405 509
410.0745407 116.7408405 509
412.7278557 116.7408405 509
414.5650977 116.5114872 508
417.2131999 116.5114872 508
419.0348035 116.2821339 507
391.8315387 118.6904572 506
395.2487987 118.9250233 507
398.6764844 119.1595894 508
400.5345776 118.9250233 507
403.9726888 119.1595894 508
406.620791 119.1595894 508
409.2688932 119.1595894 508
411.1061352 118.9250233 507
413.7490246 118.9250233 507
416.3919141 118.9250233 507
418.2083049 118.6904572 506
372.9921184 118.6905657 495
376.3311865 118.9303446 496
379.6806801 119.1701235 497
384.5789151 119.8894603 500
389.5084268 120.608797 503
392.9100484 120.8485759 504
396.3220957 121.0883549 505
398.9545595 121.0883549 505
402.3822451 121.3281338 506
405.0199218 121.3281338 506
407.6575984 121.3281338 506
410.295275 121.3281338 506
412.9329516 121.3281338 506
415.5706282 121.3281338 506
418.2083049 121.3281338 506
374.4991573 121.7608849 497
377.848651 122.0058766 498
381.2085702 122.2508684 499
384.5789151 122.4958601 500
387.9596855 122.7408518 501
392.130465 123.2308352 503
395.5372994 123.475827 504
398.9545595 123.7208187 505
402.3822451 123.9658104 506
405.0199218 123.9658104 506
407.6575984 123.9658104 506
410.295275 123.9658104 506
412.9329516 123.9658104 506
415.5706282 123.9658104 506
418.2083049 123.9658104 506
376.0061962 124.8520554 499
378.6073832 124.8520554 499
381.9725152 125.1022599 500
385.3480729 125.3524644 501
387.9596855 125.3524644 501
392.130465 125.8528735 503
394.7525032 125.8528735 503
398.1645505 126.103078 504
402.3822451 126.603487 506
405.0199218 126.603487 506
407.6575984 126.603487 506
410.295275 126.603487 506
412.9329516 126.603487 506
415.5706282 126.603487 506
418.2083049 126.603487 506
376.0061962 127.4532424 499
378.6073832 127.4532424 499
381.2085702 127.4532424 499
384.5789151 127.7086597 500
387.1853149 127.7086597 500
391.3508816 128.2194944 502
394.7525032 128.4749117 503
398.1645505 128.730329 504
401.5870233 128.9857463 505
404.2194871 128.9857463 505
407.6575984 129.2411636 506
410.295275 129.2411636 506
412.9329516 129.2411636 506
414.7493424 128.9857463 505
418.2083049 129.2411636 506
374.4991573 129.5331692 497
378.6073832 130.0544294 499
381.2085702 130.0544294 499
383.8097572 130.0544294 499
387.1853149 130.3150596 500
390.5712981 130.5756897 501
393.967707 130.8363198 502
396.5845324 130.8363198 502
399.2013578 130.8363198 502
402.6186179 131.0969499 503
405.2406561 131.0969499 503
407.8626943 131.0969499 503
411.3008056 131.35758 504
414.7493424 131.6182102 505
417.3818062 131.6182102 505
377.848651 132.3897735 498
380.4446252 132.3897735 498
383.8097572 132.6556165 499
386.4109443 132.6556165 499
389.7917147 132.9214594 500
393.1829108 133.1873023 501
395.7945234 133.1873023 501
398.406136 133.1873023 501
401.0177486 133.1873023 501
404.4350087 133.4531452 502
407.0518341 133.4531452 502
410.4847325 133.7189881 503
413.1067708 133.7189881 503
416.5553076 133.9848311 504
383.0405994 134.9857478 498
386.4109443 135.2568035 499
389.0121313 135.2568035 499
391.6133183 135.2568035 499
394.2145053 135.2568035 499
397.6109142 135.5278592 500
400.217314 135.5278592 500
402.8237138 135.5278592 500
406.2409739 135.7989149 501
408.8525865 135.7989149 501
413.1067708 136.3410264 503
415.728809 136.3410264 503
388.2325478 137.581722 498
391.6133183 137.8579905 499
394.2145053 137.8579905 499
396.8156923 137.8579905 499
399.4168794 137.8579905 499
402.0180664 137.8579905 499
404.6192534 137.8579905 499
408.0365135 138.134259 500
412.2854849 138.6867961 502
414.9023104 138.6867961 502
