# .PCD v0.7 - Point Cloud Data file format
VERSION 0.7
FIELDS x y z
SIZE 4 4 4
TYPE F F F
COUNT 1 1 1
WIDTH 1678
HEIGHT 1
VIEWPOINT 0 0 0 1 0 0 0
POINTS 1678
DATA ascii
21.53313635 88.38804845 547
24.38453775 88.38804845 547
27.28573064 88.54963538 548
30.14234484 88.54963538 548
32.99895905 88.54963538 548
35.85557325 88.54963538 548
38.71218746 88.54963538 548
41.49294618 88.38804845 547
44.26327931 88.22646153 546
47.02318684 88.0648746 545
49.86416265 88.0648746 545
52.60843178 87.90328768 544
55.44419478 87.90328768 544
58.17282551 87.74170075 543
61.00337572 87.74170075 543
63.9514838 87.90328768 544
66.78724681 87.90328768 544
69.62300981 87.90328768 544
72.45877282 87.90328768 544
75.29453583 87.90328768 544
78.13029883 87.90328768 544
80.81722717 87.74170075 543
83.4937299 87.58011382 542
86.15980704 87.4185269 541
88.81545857 87.25693997 540
91.46068451 87.09535305 539
94.27038352 87.09535305 539
96.89997106 86.93376612 538
99.33380872 86.61059227 536
102.1278693 86.61059227 536
104.7261801 86.44900534 535
107.3140652 86.28741842 534
110.0977002 86.28741842 534
112.8813352 86.28741842 534
115.6649702 86.28741842 534
118.6704191 86.44900534 535
121.4592669 86.44900534 535
124.9448331 86.93376612 538
127.9867716 87.09535305 539
131.5244658 87.58011382 542
135.5891926 88.38804845 547
-364.884359 73.2250795 439
-363.4218988 73.39187923 440
-361.128267 73.39187923 440
-358.8346351 73.39187923 440
-357.3513237 73.55867895 441
-357.4678021 74.05907813 444
-355.9532139 74.22587786 445
-353.6335181 74.22587786 445
-352.1032915 74.39267758 446
-349.7783828 74.39267758 446
-347.4534742 74.39267758 446
-344.3547347 74.22587786 445
-334.891884 75.22667621 451
-333.2782527 75.39347593 452
-332.3863242 75.72707539 454
-330.7466288 75.89387511 455
-328.374805 75.89387511 455
-326.7194712 76.06067484 456
-324.3424345 76.06067484 456
-321.9653979 76.06067484 456
-319.5883613 76.06067484 456
-317.2113246 76.06067484 456
-314.834288 76.06067484 456
-312.4572514 76.06067484 456
-309.4002143 75.89387511 455
-306.3536027 75.72707539 454
-304.6565666 75.89387511 455
-301.6203807 75.72707539 454
-299.2537696 75.72707539 454
-296.8871586 75.72707539 454
-294.5205476 75.72707539 454
-292.1539365 75.72707539 454
-289.7873255 75.72707539 454
-286.7876292 75.56027566 453
-284.4262309 75.56027566 453
-282.6874924 75.72707539 454
-280.3208813 75.72707539 454
-277.3420362 75.56027566 453
-275.5876592 75.72707539 454
-273.2210482 75.72707539 454
-270.8544372 75.72707539 454
-269.6705919 76.06067484 456
-267.2935552 76.06067484 456
-265.4974759 76.22747456 457
-264.2667154 76.56107401 459
-262.444572 76.72787374 460
-260.6120031 76.89467346 461
-258.2089025 76.89467346 461
-256.3606951 77.06147319 462
-253.9523817 77.06147319 462
-251.5440682 77.06147319 462
-249.6750097 77.22827292 463
-247.2614834 77.22827292 463
-244.8479572 77.22827292 463
-242.434431 77.22827292 463
-240.5393084 77.39507264 464
-238.1205694 77.39507264 464
-236.2098084 77.56187237 465
-233.7858566 77.56187237 465
-232.3570097 77.89547182 467
-230.414972 78.06227154 468
-227.9753817 78.06227154 468
-226.0177056 78.22907127 469
-224.5263051 78.56267072 471
-222.542565 78.72947045 472
-220.0821235 78.72947045 472
-218.082745 78.89627017 473
-216.0729409 79.0630699 474
-214.0527111 79.22986962 475
-211.5766313 79.22986962 475
-209.5407631 79.39666935 476
-207.4944694 79.56346907 477
-205.007964 79.56346907 477
-203.3706051 79.89706852 479
-201.2930346 80.06386825 480
-199.2050384 80.23066798 481
-197.1066167 80.3974677 482
-194.9977694 80.56426743 483
-192.4799871 80.56426743 483
-190.3555014 80.73106715 484
-187.8325064 80.73106715 484
-185.6923822 80.89786688 485
-183.5418325 81.0646666 486
-181.0084119 81.0646666 486
-178.8422237 81.23146633 487
-176.3035903 81.23146633 487
-174.1217638 81.39826605 488
-171.9295116 81.56506578 489
-170.0732152 81.89866523 491
-167.5137306 81.89866523 491
-165.2902016 82.06546496 492
-163.0562471 82.23226468 493
-160.811867 82.39906441 494
-158.5570612 82.56586413 495
-155.9767254 82.56586413 495
-154.016173 82.89946358 497
-151.4254116 82.89946358 497
-149.1341162 83.06626331 498
-146.8323953 83.23306303 499
-144.8092893 83.56666249 501
-142.4815044 83.73346221 502
-140.1432938 83.90026194 503
-138.3414619 84.40066111 506
-135.9719746 84.56746084 507
-133.3290852 84.56746084 507
-130.9439595 84.73426056 508
-128.2958572 84.73426056 508
-125.8950931 84.90106029 509
-123.2417781 84.90106029 509
-120.8253756 85.06786002 510
-118.8619469 85.56825919 513
-116.6407545 85.90185864 515
-114.3987108 86.23545809 517
-113.0000612 87.23625645 523
-111.3280095 88.07025507 528
-109.1925584 88.57065425 531
-107.4266764 89.40465288 536
-105.023036 89.73825233 538
-102.2185497 89.73825233 538
-99.78363254 90.07185178 540
-96.96872074 90.07185178 540
-94.15380893 90.07185178 540
-91.33889712 90.07185178 540
-88.52398531 90.07185178 540
-85.70907351 90.07185178 540
-82.74065399 89.90505206 539
-79.93095498 89.90505206 539
-77.26433808 90.07185178 540
-74.44942627 90.07185178 540
-71.76717098 90.23865151 541
-68.94704637 90.23865151 541
-66.37138358 90.57225096 543
-63.65785148 90.73905068 544
-60.93389378 90.90585041 545
-58.41269551 91.40624958 548
-55.65746101 91.57304931 549
-52.79563401 91.57304931 549
-50.02476112 91.73984904 550
-47.24346262 91.90664876 551
-44.45173853 92.07344849 552
-41.57427313 92.07344849 552
-38.62670481 91.90664876 551
-35.75445221 91.90664876 551
-32.8821996 91.90664876 551
-30.009947 91.90664876 551
-27.1376944 91.90664876 551
-24.22140288 91.73984904 550
-21.35436307 91.73984904 550
-18.45370996 91.57304931 549
-15.56348244 91.40624958 548
-12.68368052 91.23944986 547
-9.83227911 91.23944986 547
-6.968115588 91.07265013 546
-4.114377666 90.90585041 545
-1.275738377 91.07265013 546
1.567573946 90.90585041 545
4.408549752 90.90585041 545
7.249525558 90.90585041 545
10.07198668 90.73905068 544
12.90774969 90.73905068 544
15.77245298 90.90585041 545
18.61342878 90.90585041 545
21.45440459 90.90585041 545
24.29538039 90.90585041 545
27.18614768 91.07265013 546
30.03233628 91.07265013 546
32.87852489 91.07265013 546
35.7247135 91.07265013 546
38.5709021 91.07265013 546
41.34123523 90.90585041 545
44.10114276 90.73905068 544
47.02318684 90.90585041 545
52.60843178 90.73905068 544
55.34227531 90.57225096 543
58.17282551 90.57225096 543
61.00337572 90.57225096 543
63.83392593 90.57225096 543
66.66447613 90.57225096 543
69.49502634 90.57225096 543
72.32557655 90.57225096 543
75.01771768 90.40545123 542
77.84305509 90.40545123 542
80.51955782 90.23865151 541
83.18563496 90.07185178 540
85.84128649 89.90505206 539
88.48651243 89.73825233 538
91.29099864 89.73825233 538
93.92058618 89.5714526 537
96.53974811 89.40465288 536
99.14848445 89.23785315 535
101.7467952 89.07105343 534
104.5304302 89.07105343 534
107.1131025 88.9042537 533
109.6853493 88.73745398 532
112.4585587 88.73745398 532
115.2317681 88.73745398 532
118.0049775 88.73745398 532
120.7781869 88.73745398 532
124.2481147 89.23785315 535
127.2744148 89.40465288 536
130.5538056 89.73825233 538
133.8540475 90.07185178 540
137.681322 90.73905068 544
-364.0531873 75.34148602 438
-362.5959399 75.51349855 439
-361.128267 75.68551107 440
-359.6501684 75.8575236 441
-358.1616442 76.02953612 442
-357.4678021 76.37356117 444
-355.9532139 76.5455737 445
-354.4282001 76.71758622 446
-343.572275 76.88959875 447
-341.2421535 76.88959875 447
-334.891884 77.57764885 451
-333.2782527 77.74966137 452
-333.1184526 78.26569895 455
-330.7466288 78.26569895 455
-328.374805 78.26569895 455
-326.7194712 78.43771147 456
-324.3424345 78.43771147 456
-321.9653979 78.43771147 456
-319.5883613 78.43771147 456
-317.2113246 78.43771147 456
-314.1438619 78.26569895 455
-311.7720381 78.26569895 455
-308.7202138 78.09368642 454
-306.3536027 78.09368642 454
-303.9869917 78.09368642 454
-301.6203807 78.09368642 454
-299.2537696 78.09368642 454
-296.2332221 77.9216739 453
-293.8718239 77.9216739 453
-291.5104256 77.9216739 453
-288.5107293 77.74966137 452
-286.1545439 77.74966137 452
-283.7983584 77.74966137 452
-281.442173 77.74966137 452
-279.0859876 77.74966137 452
-276.7298021 77.74966137 452
-274.980638 77.9216739 453
-272.6192397 77.9216739 453
-270.8544372 78.09368642 454
-269.079209 78.26569895 455
-267.2935552 78.43771147 456
-265.4974759 78.609724 457
-263.6909709 78.78173653 458
-261.8740404 78.95374905 459
-260.0466842 79.12576158 460
-258.2089025 79.2977741 461
-255.8058018 79.2977741 461
-253.9523817 79.46978663 462
-251.5440682 79.46978663 462
-249.6750097 79.64179915 463
-247.2614834 79.64179915 463
-244.8479572 79.64179915 463
-242.434431 79.64179915 463
-240.0209047 79.64179915 463
-238.1205694 79.81381168 464
-236.2098084 79.9858242 465
-234.2886219 80.15783673 466
-232.3570097 80.32984925 467
-230.414972 80.50186178 468
-228.4625086 80.6738743 469
-226.0177056 80.6738743 469
-224.5263051 81.01789935 471
-222.542565 81.18991188 472
-220.0821235 81.18991188 472
-218.082745 81.3619244 473
-216.0729409 81.53393693 474
-214.0527111 81.70594945 475
-211.5766313 81.70594945 475
-209.5407631 81.87796198 476
-207.4944694 82.0499745 477
-205.4377501 82.22198703 478
-203.3706051 82.39399955 479
-201.2930346 82.56601208 480
-199.2050384 82.7380246 481
-197.1066167 82.91003713 482
-194.9977694 83.08204965 483
-192.8784964 83.25406218 484
-190.3555014 83.25406218 484
-188.22059 83.4260747 485
-186.0752531 83.59808723 486
-183.5418325 83.59808723 486
-181.0084119 83.59808723 486
-178.8422237 83.77009975 487
-176.66561 83.94211228 488
-174.4785707 84.11412481 489
-172.2811057 84.28613733 490
-170.0732152 84.45814986 491
-167.8548991 84.63016238 492
-165.6261573 84.80217491 493
-163.38699 84.97418743 494
-161.1373971 85.14619996 495
-158.8773785 85.31821248 496
-156.2918299 85.31821248 496
-154.016173 85.49022501 497
-151.7300905 85.66223753 498
-149.4335823 85.83425006 499
-147.1266486 86.00626258 500
-145.0983298 86.35028763 502
-142.7653321 86.52230016 503
-140.4219087 86.69431268 504
-138.3414619 87.03833773 506
-135.9719746 87.21035026 507
-133.5920617 87.38236278 508
-130.9439595 87.38236278 508
-128.800959 87.72638783 510
-126.3897693 87.89840036 511
-123.968154 88.07041288 512
-122.2468506 88.75846298 516
-120.0204454 89.10248803 518
-117.9996759 89.61852561 521
-116.6114519 90.65060076 527
-114.5124904 91.16663834 530
-111.9605551 91.33865086 531
-109.6038299 91.68267591 533
-107.6270993 92.37072601 537
-105.023036 92.54273854 538
-102.2185497 92.54273854 538
-99.59884804 92.71475106 539
-96.78914903 92.71475106 539
-93.97945002 92.71475106 539
-91.00060491 92.54273854 538
-88.1961187 92.54273854 538
-85.39163249 92.54273854 538
-82.58714628 92.54273854 538
-79.78266008 92.54273854 538
-77.12125597 92.71475106 539
-74.44942627 92.88676359 540
-71.76717098 93.05877611 541
-69.07449008 93.23078864 542
-66.37138358 93.40280116 543
-63.65785148 93.57481369 544
-61.04569909 93.91883874 546
-58.41269551 94.26286379 548
-55.65746101 94.43487631 549
-52.89180092 94.60688884 550
-50.11571523 94.77890137 551
-47.32920394 94.95091389 552
-44.45173853 94.95091389 552
-41.57427313 94.95091389 552
-38.69680772 94.95091389 552
-35.81934232 94.95091389 552
-32.94187692 94.95091389 552
-30.009947 94.77890137 551
-27.08844268 94.60688884 550
-24.22140288 94.60688884 550
-21.31553696 94.43487631 549
-18.42009664 94.26286379 548
-15.53508192 94.09085126 547
-12.68368052 94.09085126 547
-9.814304194 93.91883874 546
-6.955353472 93.74682621 545
-4.106828349 93.57481369 544
-1.271065343 93.57481369 544
1.564697663 93.57481369 544
4.40046067 93.57481369 544
7.222921794 93.40280116 543
10.053472 93.40280116 543
12.88402221 93.40280116 543
15.71457241 93.40280116 543
18.5792757 93.57481369 544
21.41503871 93.57481369 544
24.25080171 93.57481369 544
27.08656472 93.57481369 544
29.92232773 93.57481369 544
32.75809073 93.57481369 544
35.59385374 93.57481369 544
38.42961675 93.57481369 544
41.26537975 93.57481369 544
52.5117251 93.40280116 543
55.34227531 93.40280116 543
58.17282551 93.40280116 543
60.89103065 93.23078864 542
63.71636805 93.23078864 542
66.54170546 93.23078864 542
69.36704287 93.23078864 542
72.059184 93.05877611 541
74.60249046 92.71475106 539
77.2685676 92.54273854 538
79.92421913 92.37072601 537
82.56944507 92.19871349 536
85.36350568 92.19871349 536
87.82862014 91.85468844 534
90.44256928 91.68267591 533
93.22099149 91.68267591 533
95.81930223 91.51066339 532
98.40718737 91.33865086 531
101.175184 91.33865086 531
103.9431806 91.33865086 531
106.7111772 91.33865086 531
109.2729983 91.16663834 530
112.0357822 91.16663834 530
114.5819649 90.99462581 529
117.3395359 90.99462581 529
120.0971069 90.99462581 529
122.8546779 90.99462581 529
125.8497012 91.16663834 530
128.8551501 91.33865086 531
131.8710246 91.51066339 532
135.6565966 92.19871349 536
138.9672642 92.54273854 538
-364.0531873 77.62469227 438
-362.5959399 77.80191759 439
-361.128267 77.97914292 440
-358.8346351 77.97914292 440
-358.1616442 78.33359357 442
-358.2729097 78.86526954 445
-337.9906235 80.10584681 452
-335.6344381 80.10584681 452
-334.0155939 80.28307214 453
-326.7194712 80.81474811 456
-323.6311573 80.63752279 455
-321.2593334 80.63752279 455
-318.8875096 80.63752279 455
-316.5156858 80.63752279 455
-314.1438619 80.63752279 455
-311.7720381 80.63752279 455
-308.7202138 80.46029746 454
-306.3536027 80.46029746 454
-303.3174168 80.28307214 453
-300.9560186 80.28307214 453
-298.5946204 80.28307214 453
-295.5792856 80.10584681 452
-292.5743765 79.92862149 451
-290.2234039 79.92862149 451
-287.8724313 79.92862149 451
-285.5214586 79.92862149 451
-283.170486 79.92862149 451
-280.8195133 79.92862149 451
-278.4685407 79.92862149 451
-276.7298021 80.10584681 452
-274.3736167 80.10584681 452
-272.6192397 80.28307214 453
-270.2578415 80.28307214 453
-269.079209 80.63752279 455
-266.7073852 80.63752279 455
-264.9165186 80.81474811 456
-263.1152264 80.99197344 457
-261.8740404 81.34642409 459
-259.4813653 81.34642409 459
-257.6487964 81.52364941 460
-255.8058018 81.70087474 461
-253.9523817 81.87810006 462
-251.5440682 81.87810006 462
-249.1357548 81.87810006 462
-247.2614834 82.05532539 463
-244.8479572 82.05532539 463
-242.434431 82.05532539 463
-240.0209047 82.05532539 463
-238.1205694 82.23255071 464
-236.2098084 82.40977604 465
-234.2886219 82.58700136 466
-232.3570097 82.76422669 467
-230.414972 82.94145201 468
-228.4625086 83.11867733 469
-226.4996197 83.29590266 470
-224.5263051 83.47312798 471
-222.542565 83.65035331 472
-220.0821235 83.65035331 472
-218.082745 83.82757863 473
-216.0729409 84.00480396 474
-214.0527111 84.18202928 475
-212.0220558 84.35925461 476
-210.4211865 84.71370526 478
-207.9294683 84.71370526 478
-205.8675361 84.89093058 479
-204.2197517 85.24538123 481
-202.1317555 85.42260656 482
-199.6191861 85.42260656 482
-197.5155516 85.59983188 483
-195.4014914 85.77705721 484
-192.8784964 85.77705721 484
-190.7487979 85.95428253 485
-188.22059 85.95428253 485
-186.0752531 86.13150786 486
-183.5418325 86.13150786 486
-181.3808572 86.30873318 487
-179.2094562 86.48595851 488
-177.0276297 86.66318383 489
-174.8353776 86.84040916 490
-172.6326998 87.01763448 491
-170.4195965 87.19485981 492
-168.1960676 87.37208513 493
-165.962113 87.54931046 494
-163.7177329 87.72653578 495
-161.1373971 87.72653578 495
-158.8773785 87.9037611 496
-156.6069344 88.08098643 497
-154.016173 88.08098643 497
-151.7300905 88.25821175 498
-149.4335823 88.43543708 499
-147.1266486 88.6126624 500
-145.0983298 88.96711305 502
-142.7653321 89.14433838 503
-140.7005236 89.49878903 505
-138.614864 89.85323968 507
-135.9719746 89.85323968 507
-133.5920617 90.030465 508
-131.2017232 90.20769033 509
-129.0535099 90.56214098 511
-126.8844455 90.91659163 513
-124.6945299 91.27104228 515
-122.9575881 91.97994358 519
-120.7155445 92.33439422 521
-118.9056235 93.04329552 525
-117.2752742 93.92942215 530
-114.944613 94.2838728 532
-112.3822521 94.46109812 533
-110.0151013 94.81554877 535
-107.8275222 95.34722475 538
-105.023036 95.34722475 538
-102.2185497 95.34722475 538
-99.41406353 95.34722475 538
-96.60957733 95.34722475 538
-93.80509112 95.34722475 538
-91.00060491 95.34722475 538
-88.03218539 95.16999942 537
-85.39163249 95.34722475 538
-82.58714628 95.34722475 538
-79.78266008 95.34722475 538
-77.12125597 95.52445007 539
-74.44942627 95.7016754 540
-71.76717098 95.87890072 541
-69.07449008 96.05612605 542
-66.49361449 96.4105767 544
-63.77486959 96.58780202 545
-61.04569909 96.76502735 546
-58.51928802 97.29670332 549
-55.75884072 97.47392864 550
-52.98796783 97.65115397 551
-50.11571523 97.65115397 551
-47.41494525 98.00560462 553
-44.53226704 98.00560462 553
-41.64958884 98.00560462 553
-38.69680772 97.82837929 552
-35.81934232 97.82837929 552
-32.94187692 97.82837929 552
-30.009947 97.65115397 551
-27.08844268 97.47392864 550
-24.13332505 97.11947799 548
-21.23788473 96.94225267 547
-18.35287001 96.76502735 546
-15.47828089 96.58780202 545
-12.61411737 96.4105767 544
-9.760379446 96.23335137 543
-6.929829239 96.23335137 543
-4.091729716 96.05612605 542
-1.266392309 96.05612605 542
1.556068816 95.87890072 541
4.376193423 95.87890072 541
7.196318031 95.87890072 541
10.01644264 95.87890072 541
12.83656725 95.87890072 541
15.68563213 96.05612605 542
18.51096954 96.05612605 542
21.29694107 95.87890072 541
24.11706567 95.87890072 541
26.93719028 95.87890072 541
29.70231061 95.7016754 540
32.45700534 95.52445007 539
35.20127447 95.34722475 538
38.00576068 95.34722475 538
40.81024689 95.34722475 538
43.61473309 95.34722475 538
46.59178146 95.7016754 540
49.40669326 95.7016754 540
52.31831175 95.87890072 541
55.13843636 95.87890072 541
58.06569324 96.05612605 542
60.77868557 95.87890072 541
63.59881018 95.87890072 541
66.29616411 95.7016754 540
69.11107592 95.7016754 540
71.79279145 95.52445007 539
74.46408139 95.34722475 538
77.12494572 95.16999942 537
79.77538446 94.9927741 536
82.4153976 94.81554877 535
85.04498513 94.63832345 534
87.499674 94.2838728 532
90.27288341 94.2838728 532
92.87119415 94.10664747 531
95.63919076 94.10664747 531
98.2218631 93.92942215 530
100.9846469 93.92942215 530
103.7474307 93.92942215 530
106.5102145 93.92942215 530
109.0668229 93.75219682 529
111.6130056 93.5749715 528
114.3653638 93.5749715 528
117.117722 93.5749715 528
119.8700803 93.5749715 528
122.390199 93.39774617 527
125.3747967 93.5749715 528
128.1271549 93.5749715 528
131.127391 93.75219682 529
134.8973246 94.46109812 533
138.1923538 94.81554877 535
141.7717504 95.34722475 538
146.45734 96.58780202 545
-362.390844 79.54302226 436
-360.1180634 79.54302226 436
-358.6660288 79.72546039 437
-358.0191019 80.09033663 439
-357.4678021 81.00252726 444
-356.7531088 81.36740351 446
-355.2228822 81.54984163 447
-350.5696489 82.097156 450
-348.223889 82.097156 450
-345.8781292 82.097156 450
-343.5323693 82.097156 450
-341.944802 82.27959413 451
-340.346809 82.46203225 452
-337.9906235 82.46203225 452
-335.6344381 82.46203225 452
-334.0155939 82.64447038 453
-332.3863242 82.8269085 454
-328.374805 83.00934663 455
-326.0029811 83.00934663 455
-323.6311573 83.00934663 455
-321.2593334 83.00934663 455
-318.1866579 82.8269085 454
-315.8200469 82.8269085 454
-314.1438619 83.00934663 455
-311.0868248 82.8269085 454
-308.7202138 82.8269085 454
-306.3536027 82.8269085 454
-303.3174168 82.64447038 453
-300.9560186 82.64447038 453
-297.9354711 82.46203225 452
-294.9253492 82.27959413 451
-292.5743765 82.27959413 451
-290.2234039 82.27959413 451
-287.8724313 82.27959413 451
-285.5214586 82.27959413 451
-283.170486 82.27959413 451
-280.8195133 82.27959413 451
-278.4685407 82.27959413 451
-276.7298021 82.46203225 452
-274.3736167 82.46203225 452
-272.6192397 82.64447038 453
-270.2578415 82.64447038 453
-269.079209 83.00934663 455
-266.7073852 83.00934663 455
-264.9165186 83.19178475 456
-263.1152264 83.37422287 457
-261.3035087 83.556661 458
-259.4813653 83.73909912 459
-257.6487964 83.92153725 460
-255.8058018 84.10397537 461
-253.9523817 84.2864135 462
-251.5440682 84.2864135 462
-249.1357548 84.2864135 462
-247.2614834 84.46885162 463
-244.8479572 84.46885162 463
-242.9580474 84.65128975 464
-240.5393084 84.65128975 464
-238.6337603 84.83372787 465
-236.2098084 84.83372787 465
-234.2886219 85.01616599 466
-232.8545622 85.38104224 468
-230.414972 85.38104224 468
-228.4625086 85.56348037 469
-226.4996197 85.74591849 470
-225.0030064 86.11079474 472
-222.542565 86.11079474 472
-220.5483992 86.29323287 473
-218.082745 86.29323287 473
-216.5287909 86.65810911 475
-212.0220558 86.84054724 476
-210.4211865 87.20542349 478
-208.3644672 87.38786161 479
-206.2973222 87.57029974 480
-204.2197517 87.75273786 481
-202.1317555 87.93517599 482
-200.0333338 88.11761411 483
-197.9244865 88.30005223 484
-193.2770057 88.48249036 485
-190.7487979 88.48249036 485
-188.6086737 88.66492848 486
-186.0752531 88.66492848 486
-183.9194906 88.84736661 487
-181.3808572 88.84736661 487
-179.5766887 89.21224286 489
-177.3896494 89.39468098 490
-175.1921844 89.57711911 491
-172.9842939 89.75955723 492
-170.7659778 89.94199535 493
-168.5372361 90.12443348 494
-165.962113 90.12443348 494
-164.0484758 90.48930973 496
-161.4629272 90.48930973 496
-158.8773785 90.48930973 496
-156.6069344 90.67174785 497
-154.3260647 90.85418598 498
-152.0347694 91.0366241 499
-149.4335823 91.0366241 499
-147.4209019 91.40150035 501
-145.3873703 91.7663766 503
-143.0491598 91.94881472 504
-140.7005236 92.13125285 505
-138.614864 92.4961291 507
-136.2401639 92.67856722 508
-133.5920617 92.67856722 508
-131.4594869 93.04344347 510
-129.5586117 93.59075784 513
-127.6264598 94.13807222 516
-125.4209058 94.50294847 518
-123.6683256 95.23270096 522
-120.038058 96.69220596 530
-117.7178224 97.05708221 532
-115.3767356 97.42195846 534
-112.8039491 97.60439658 535
-110.220737 97.78683471 536
-107.4266764 97.78683471 536
-104.4374056 97.60439658 535
-101.6485578 97.60439658 535
-98.67492552 97.42195846 534
-95.89129051 97.42195846 534
-93.1076555 97.42195846 534
-90.49316659 97.60439658 535
-87.86825209 97.78683471 536
-85.23291199 97.96927283 537
-82.43363858 97.96927283 537
-79.78266008 98.15171095 538
-77.12125597 98.33414908 539
-74.44942627 98.5165872 540
-71.76717098 98.69902533 541
-69.07449008 98.88146345 542
-66.49361449 99.2463397 544
-63.77486959 99.42877783 545
-61.1575044 99.79365408 547
-58.62588053 100.3409684 550
-55.86022044 100.5234066 551
-53.08413474 100.7058447 552
-50.20666934 100.7058447 552
-47.50068656 101.0707209 554
-44.61279556 101.0707209 554
-41.64958884 100.8882828 553
-38.76691064 100.8882828 553
-35.81934232 100.7058447 552
-32.8821996 100.5234066 551
-29.95548249 100.3409684 550
-26.98993926 99.9760922 548
-24.08928614 99.79365408 547
-21.19905862 99.61121595 546
-18.3192567 99.42877783 545
-15.44988037 99.2463397 544
-12.59092965 99.06390158 543
-9.74240453 98.88146345 542
-6.917067123 98.88146345 542
-4.084180399 98.69902533 541
-1.264055791 98.69902533 541
1.556068816 98.69902533 541
4.376193423 98.69902533 541
7.196318031 98.69902533 541
10.01644264 98.69902533 541
12.83656725 98.69902533 541
15.65669185 98.69902533 541
18.47681646 98.69902533 541
21.25757519 98.5165872 540
24.072487 98.5165872 540
26.83760732 98.33414908 539
29.59230205 98.15171095 538
32.33657118 97.96927283 537
35.07041471 97.78683471 536
37.86447532 97.78683471 536
40.65853593 97.78683471 536
43.53366482 97.96927283 537
46.4192193 98.15171095 538
49.31519939 98.33414908 539
52.22160507 98.5165872 540
55.03651688 98.5165872 540
57.95856096 98.69902533 541
60.6663405 98.5165872 540
63.4812523 98.5165872 540
66.17339344 98.33414908 539
68.85510897 98.15171095 538
71.65959518 98.15171095 538
74.32567231 97.96927283 537
76.98132385 97.78683471 536
79.62654979 97.60439658 535
82.26135012 97.42195846 534
84.88572486 97.23952033 533
87.33520093 96.87464408 531
90.10319754 96.87464408 531
92.69629548 96.69220596 530
95.45907929 96.69220596 530
98.03653883 96.50976783 529
100.7941098 96.50976783 529
103.5516809 96.50976783 529
106.3092519 96.50976783 529
108.8606474 96.32732971 528
111.4016174 96.14489159 527
114.1487628 96.14489159 527
116.8959082 96.14489159 527
119.6430536 96.14489159 527
122.390199 96.14489159 527
124.8998922 95.96245346 526
127.6418248 95.96245346 526
130.6316352 96.14489159 527
133.884962 96.50976783 529
137.4174434 97.05708221 532
141.2447179 97.78683471 536
144.8449657 98.33414908 539
149.2983159 99.42877783 545
-360.7285007 81.44050106 434
-358.4661456 81.44050106 434
-355.8575868 82.94170845 442
-354.4282001 83.69231215 446
-353.68223 84.06761399 448
-352.1311522 84.25526492 449
-350.5696489 84.44291584 450
-348.223889 84.44291584 450
-345.8781292 84.44291584 450
-343.5323693 84.44291584 450
-341.944802 84.63056677 451
-339.5938293 84.63056677 451
-337.9906235 84.81821769 452
-335.6344381 84.81821769 452
-334.0155939 85.00586862 453
-332.3863242 85.19351954 454
-330.0197131 85.19351954 454
-327.6531021 85.19351954 454
-325.286491 85.19351954 454
-322.91988 85.19351954 454
-320.553269 85.19351954 454
-318.1866579 85.19351954 454
-315.8200469 85.19351954 454
-313.4534359 85.19351954 454
-311.0868248 85.19351954 454
-308.7202138 85.19351954 454
-305.6788151 85.00586862 453
-303.3174168 85.00586862 453
-300.2916565 84.81821769 452
-297.9354711 84.81821769 452
-294.9253492 84.63056677 451
-292.5743765 84.63056677 451
-290.2234039 84.63056677 451
-287.8724313 84.63056677 451
-285.5214586 84.63056677 451
-283.170486 84.63056677 451
-280.8195133 84.63056677 451
-278.4685407 84.63056677 451
-276.7298021 84.81821769 452
-274.3736167 84.81821769 452
-272.6192397 85.00586862 453
-270.2578415 85.00586862 453
-269.079209 85.38117046 455
-266.7073852 85.38117046 455
-264.9165186 85.56882139 456
-262.539482 85.56882139 456
-261.3035087 85.94412324 458
-259.4813653 86.13177416 459
-257.6487964 86.31942508 460
-255.8058018 86.50707601 461
-253.4027012 86.50707601 461
-251.5440682 86.69472693 462
-249.1357548 86.69472693 462
-247.2614834 86.88237786 463
-244.8479572 86.88237786 463
-242.434431 86.88237786 463
-241.0577121 87.2576797 465
-238.6337603 87.2576797 465
-236.7177865 87.44533063 466
-234.2886219 87.44533063 466
-232.8545622 87.82063248 468
-230.9073117 88.0082834 469
-228.4625086 88.0082834 469
-226.4996197 88.19593432 470
-224.5263051 88.38358525 471
-222.542565 88.57123617 472
-220.5483992 88.7588871 473
-218.082745 88.7588871 473
-216.5287909 89.13418895 475
-214.0527111 89.13418895 475
-212.4674803 89.50949079 477
-210.8613982 89.88479264 479
-208.7994661 90.07244357 480
-206.7271083 90.26009449 481
-204.644325 90.44774541 482
-202.551116 90.63539634 483
-200.4474815 90.82304726 484
-197.9244865 90.82304726 484
-195.8052135 91.01069819 485
-193.675515 91.19834911 486
-191.1420944 91.19834911 486
-188.6086737 91.19834911 486
-186.458124 91.38600003 487
-184.2971487 91.57365096 488
-182.1257477 91.76130188 489
-179.9439212 91.94895281 490
-177.7516691 92.13660373 491
-175.5489913 92.32425465 492
-173.335888 92.51190558 493
-171.1123591 92.6995565 494
-168.5372361 92.6995565 494
-166.2980687 92.88720743 495
-164.0484758 93.07485835 496
-161.4629272 93.07485835 496
-159.1976958 93.26250928 497
-156.6069344 93.26250928 497
-154.3260647 93.4501602 498
-152.0347694 93.63781112 499
-149.7330484 93.82546205 500
-147.4209019 94.01311297 501
-145.3873703 94.38841482 503
-143.0491598 94.57606574 504
-140.9791385 94.95136759 506
-138.614864 95.13901852 507
-136.2401639 95.32666944 508
-134.1180147 95.70197129 510
-131.7172506 95.88962221 511
-130.0637135 96.64022591 515
-128.121136 97.20317868 518
-125.9051564 97.57848053 520
-124.3790631 98.51673515 525
-122.1057427 98.892037 527
-120.038058 99.45498977 530
-117.9390965 100.0179425 533
-115.3767356 100.2055935 534
-112.5931006 100.2055935 534
-109.6038299 100.0179425 533
-106.8254076 100.0179425 533
-104.0469854 100.0179425 533
-101.2685632 100.0179425 533
-98.30535651 99.83029162 532
-95.7117188 100.0179425 533
-92.93329659 100.0179425 533
-90.32402049 100.2055935 534
-87.70431878 100.3932444 535
-85.07419148 100.5808953 536
-82.43363858 100.7685462 537
-79.78266008 100.9561972 538
-77.12125597 101.1438481 539
-74.44942627 101.331499 540
-71.76717098 101.5191499 541
-69.07449008 101.7068009 542
-66.6158454 102.2697536 545
-63.8918877 102.4574046 546
-61.26930971 102.8327064 548
-58.73247304 103.3956592 551
-55.96160015 103.5833101 552
-53.18030165 103.770961 553
-50.29762345 103.770961 553
-47.50068656 103.9586119 554
-44.61279556 103.9586119 554
-41.72490455 103.9586119 554
-38.69680772 103.5833101 552
-35.81934232 103.5833101 552
-32.8821996 103.3956592 551
-29.90101797 103.0203573 549
-26.94068754 102.6450555 547
-24.04524722 102.4574046 546
-21.12140639 102.0821027 544
-18.25203007 101.8944518 543
-15.42147986 101.8944518 543
-12.54455422 101.5191499 541
-9.724429613 101.5191499 541
-6.89154289 101.331499 540
-4.076631082 101.331499 540
-1.261719274 101.331499 540
1.553192534 101.331499 540
4.368104341 101.331499 540
7.183016149 101.331499 540
9.997927957 101.331499 540
12.81283976 101.331499 540
15.65669185 101.5191499 541
18.44266338 101.331499 540
21.21820931 101.1438481 539
24.02790832 101.1438481 539
26.78781584 100.9561972 538
29.53729777 100.7685462 537
32.2763541 100.5808953 536
34.93955496 100.2055935 534
37.72318997 100.2055935 534
40.50682498 100.2055935 534
43.29045999 100.2055935 534
46.33293823 100.7685462 537
49.22370551 100.9561972 538
52.02819172 100.9561972 538
54.9345974 101.1438481 539
57.85142869 101.331499 540
60.6663405 101.331499 540
63.36369443 101.1438481 539
66.05062276 100.9561972 538
68.85510897 100.9561972 538
71.52639891 100.7685462 537
74.18726324 100.5808953 536
76.83770198 100.3932444 535
79.47771511 100.2055935 534
81.95325518 99.83029162 532
84.72646459 99.83029162 532
87.33520093 99.64264069 531
89.93351167 99.45498977 530
92.52139681 99.26733885 529
95.27896782 99.26733885 529
98.03653883 99.26733885 529
100.6035728 99.07968792 528
103.355931 99.07968792 528
106.1082892 99.07968792 528
108.6544719 98.892037 527
111.1902291 98.70438607 526
113.9321617 98.70438607 526
116.6740943 98.70438607 526
119.4160269 98.70438607 526
122.1579595 98.70438607 526
124.8998922 98.70438607 526
127.6418248 98.70438607 526
130.3837574 98.70438607 526
133.3787807 98.892037 527
137.1591399 99.64264069 531
140.4541691 100.0179425 533
144.3075075 100.7685462 537
149.024374 102.0821027 544
-359.0661574 83.31712866 432
-356.8142279 83.31712866 432
-355.2228822 86.21008451 447
-352.8927607 86.21008451 447
-352.1311522 86.59581196 449
-349.7906052 86.59581196 449
-348.223889 86.78867568 450
-345.8781292 86.78867568 450
-343.5323693 86.78867568 450
-341.1866095 86.78867568 450
-338.8408497 86.78867568 450
-337.2428567 86.98153941 451
-334.891884 86.98153941 451
-332.5409114 86.98153941 451
-330.9220672 87.17440313 452
-329.2927975 87.36726685 453
-326.9313992 87.36726685 453
-325.286491 87.56013058 454
-322.2086027 87.36726685 453
-319.8472045 87.36726685 453
-317.4858063 87.36726685 453
-315.124408 87.36726685 453
-312.7630098 87.36726685 453
-310.4016115 87.36726685 453
-308.0402133 87.36726685 453
-305.6788151 87.36726685 453
-302.647842 87.17440313 452
-300.2916565 87.17440313 452
-297.9354711 87.17440313 452
-294.9253492 86.98153941 451
-292.5743765 86.98153941 451
-290.2234039 86.98153941 451
-287.8724313 86.98153941 451
-285.5214586 86.98153941 451
-283.170486 86.98153941 451
-280.8195133 86.98153941 451
-279.0859876 87.17440313 452
-276.7298021 87.17440313 452
-274.3736167 87.17440313 452
-272.6192397 87.36726685 453
-270.8544372 87.56013058 454
-269.079209 87.7529943 455
-266.7073852 87.7529943 455
-264.9165186 87.94585803 456
-262.539482 87.94585803 456
-261.3035087 88.33158547 458
-258.9160465 88.33158547 458
-257.0886903 88.5244492 459
-255.2509085 88.71731292 460
-253.4027012 88.91017664 461
-250.9996005 88.91017664 461
-249.1357548 89.10304037 462
-247.2614834 89.29590409 463
-244.8479572 89.29590409 463
-242.9580474 89.48876782 464
-240.5393084 89.48876782 464
-238.6337603 89.68163154 465
-236.7177865 89.87449526 466
-234.7913872 90.06735899 467
-232.8545622 90.26022271 468
-230.9073117 90.45308643 469
-228.4625086 90.45308643 469
-226.4996197 90.64595016 470
-225.0030064 91.03167761 472
-222.542565 91.03167761 472
-220.5483992 91.22454133 473
-218.5438079 91.41740505 474
-216.5287909 91.61026878 475
-214.5033484 91.8031325 476
-212.4674803 91.99599622 477
-210.8613982 92.38172367 479
-208.7994661 92.57458739 480
-206.7271083 92.76745112 481
-205.0688983 93.15317857 483
-202.9704765 93.34604229 484
-200.4474815 93.34604229 484
-198.3334214 93.53890601 485
-196.6126577 93.92463346 487
-194.4725336 94.11749718 488
-192.3219838 94.31036091 489
-190.1610085 94.50322463 490
-187.6067367 94.50322463 490
-185.4301229 94.69608836 491
-182.8706383 94.69608836 491
-181.0456187 95.0818158 493
-178.4757085 95.0818158 493
-175.9057982 95.0818158 493
-173.6874821 95.27467953 494
-171.4587404 95.46754325 495
-168.8784045 95.46754325 495
-166.2980687 95.46754325 495
-164.0484758 95.66040697 496
-161.7884573 95.8532707 497
-159.1976958 95.8532707 497
-156.6069344 95.8532707 497
-154.6359564 96.23899815 499
-152.0347694 96.23899815 499
-150.0325145 96.62472559 501
-147.7151552 96.81758932 502
-145.6764108 97.20331676 504
-143.6168152 97.58904421 506
-141.2577534 97.78190794 507
-139.4350703 98.36049911 510
-137.3129211 98.74622655 512
-135.1699207 99.131954 514
-129.1104884 100.6748638 522
-126.8736576 101.0605912 524
-125.0898006 101.8320461 528
-122.8008418 102.2177736 530
-120.2645449 102.4106373 531
-117.4965483 102.4106373 531
-114.944613 102.603501 532
-112.1714036 102.603501 532
-109.1925584 102.4106373 531
-106.4245618 102.4106373 531
-103.6565652 102.4106373 531
-100.8885686 102.4106373 531
-98.120572 102.4106373 531
-95.5321471 102.603501 532
-92.75893769 102.603501 532
-90.15487438 102.7963648 533
-87.54038548 102.9892285 534
-85.07419148 103.3749559 536
-82.43363858 103.5678196 537
-79.78266008 103.7606834 538
-77.12125597 103.9535471 539
-74.44942627 104.1464108 540
-71.76717098 104.3392745 541
-69.07449008 104.5321383 542
-66.6158454 105.1107294 545
-63.8918877 105.3035932 546
-61.26930971 105.6893206 548
-58.73247304 106.2679118 551
-55.96160015 106.4607755 552
-53.18030165 106.6536392 553
-50.38857756 106.846503 554
-47.50068656 106.846503 554
-44.61279556 106.846503 554
-41.72490455 106.846503 554
-38.69680772 106.4607755 552
-35.75445221 106.2679118 551
-32.82252229 106.0750481 550
-29.84655346 105.6893206 548
-26.89143583 105.3035932 546
-24.00120831 105.1107294 545
-21.08258027 104.725002 543
-18.21841675 104.5321383 542
-15.36467883 104.3392745 541
-12.52136651 104.1464108 540
-9.706454697 104.1464108 540
-6.878780773 103.9535471 539
-4.069081765 103.9535471 539
-1.261719274 104.1464108 540
1.553192534 104.1464108 540
4.368104341 104.1464108 540
7.183016149 104.1464108 540
9.997927957 104.1464108 540
12.81283976 104.1464108 540
15.62775157 104.1464108 540
18.4085103 103.9535471 539
21.17884343 103.7606834 538
23.98332964 103.7606834 538
26.73802437 103.5678196 537
29.4822935 103.3749559 536
32.21613703 103.1820922 535
34.87412508 102.7963648 533
37.65254729 102.7963648 533
40.4309695 102.7963648 533
43.29045999 102.9892285 534
46.33293823 103.5678196 537
49.13221164 103.5678196 537
52.02819172 103.7606834 538
54.83267793 103.7606834 538
57.74429641 103.9535471 539
60.55399542 103.9535471 539
63.36369443 103.9535471 539
65.92785209 103.5678196 537
68.59914202 103.3749559 536
71.26000636 103.1820922 535
73.91044509 102.9892285 534
76.55045823 102.7963648 533
79.18004577 102.603501 532
81.79920771 102.4106373 531
84.56720432 102.4106373 531
87.17072786 102.2177736 530
89.59413993 101.8320461 528
92.34649814 101.8320461 528
94.91874488 101.6391824 527
97.66589029 101.6391824 527
100.2224986 101.4463187 526
102.9644312 101.4463187 526
105.7063639 101.4463187 526
108.4482965 101.4463187 526
110.9788408 101.253455 525
113.4989596 101.0605912 524
116.2304666 101.0605912 524
118.9619736 101.0605912 524
121.4612411 100.8677275 523
124.1875354 100.8677275 523
126.9138296 100.8677275 523
129.8880016 101.0605912 524
132.6195087 101.0605912 524
136.1259261 101.6391824 527
139.6636203 102.2177736 530
142.9638622 102.603501 532
147.6546647 103.9535471 539
151.022673 104.3392745 541
154.4115325 104.725002 543
-358.2349857 85.37098158 431
-355.9882691 85.37098158 431
-355.3830445 85.76713462 433
-354.4282001 88.34212943 446
-352.8927607 88.54020595 447
-351.3468958 88.73828248 448
-349.7906052 88.936359 449
-348.223889 89.13443552 450
-345.1095111 88.936359 449
-342.7689641 88.936359 449
-341.1866095 89.13443552 450
-338.08787 88.936359 449
-336.4950898 89.13443552 450
-334.14933 89.13443552 450
-331.8035701 89.13443552 450
-329.4578103 89.13443552 450
-327.1120505 89.13443552 450
-325.4879935 89.33251205 451
-323.1370208 89.33251205 451
-320.7860482 89.33251205 451
-318.4350756 89.33251205 451
-316.0841029 89.33251205 451
-313.7331303 89.33251205 451
-311.3821576 89.33251205 451
-309.031185 89.33251205 451
-306.6802124 89.33251205 451
-304.3292397 89.33251205 451
-302.647842 89.53058857 452
-300.2916565 89.53058857 452
-297.9354711 89.53058857 452
-294.9253492 89.33251205 451
-292.5743765 89.33251205 451
-290.2234039 89.33251205 451
-287.8724313 89.33251205 451
-285.5214586 89.33251205 451
-283.170486 89.33251205 451
-280.8195133 89.33251205 451
-279.0859876 89.53058857 452
-276.7298021 89.53058857 452
-274.3736167 89.53058857 452
-272.6192397 89.72866509 453
-270.8544372 89.92674162 454
-269.079209 90.12481814 455
-267.2935552 90.32289466 456
-264.9165186 90.32289466 456
-263.1152264 90.52097119 457
-261.3035087 90.71904771 458
-259.4813653 90.91712423 459
-257.0886903 90.91712423 459
-255.8058018 91.31327728 461
-253.4027012 91.31327728 461
-251.5440682 91.5113538 462
-249.1357548 91.5113538 462
-247.2614834 91.70943033 463
-245.3767865 91.90750685 464
-243.4816639 92.10558337 465
-241.5761158 92.3036599 466
-239.660142 92.50173642 467
-237.2257646 92.50173642 467
-235.2941524 92.69981294 468
-233.3521147 92.89788947 469
-231.3996513 93.09596599 470
-229.4367624 93.29404251 471
-226.9815338 93.29404251 471
-225.0030064 93.49211904 472
-223.0140535 93.69019556 473
-220.5483992 93.69019556 473
-219.0048708 94.08634861 475
-216.984641 94.28442513 476
-214.9539857 94.48250165 477
-212.9129047 94.68057818 478
-211.7418216 95.27480775 481
-209.6694638 95.47288427 482
-207.5866805 95.67096079 483
-205.9180448 96.06711384 485
-203.8091975 96.26519036 486
-201.6899246 96.46326689 487
-199.1512911 96.46326689 487
-197.4201019 96.85941993 489
-194.8710429 96.85941993 489
-192.7152803 97.05749646 490
-190.5490922 97.25557298 491
-187.9896076 97.25557298 491
-185.807781 97.4536495 492
-183.6155289 97.65172603 493
-181.0456187 97.65172603 493
-178.8377281 97.84980255 494
-176.2626051 97.84980255 494
-174.0390762 98.04787907 495
-171.4587404 98.04787907 495
-169.219573 98.2459556 496
-166.6340244 98.2459556 496
-164.3792187 98.44403212 497
-161.7884573 98.44403212 497
-159.1976958 98.44403212 497
-156.9220389 98.64210864 498
-154.6359564 98.84018517 499
-152.3394483 99.03826169 500
-150.0325145 99.23633822 501
-147.7151552 99.43441474 502
-146.2544918 100.2267208 506
-143.9006429 100.4247974 507
-141.8149832 100.8209504 509
-140.2552766 101.6132565 513
-137.8492997 101.811333 514
-135.6958737 102.2074861 516
-129.6051646 103.7920983 524
-127.1157829 103.9901748 525
-125.0898006 104.5844043 528
-122.5691421 104.7824809 529
-119.8115711 104.7824809 529
-117.2752742 104.9805574 530
-114.5124904 104.9805574 530
-111.7497066 104.9805574 530
-108.781287 104.7824809 529
-106.2241389 104.9805574 530
-103.4613551 104.9805574 530
-100.6985713 104.9805574 530
-97.9357875 104.9805574 530
-95.35257539 105.1786339 531
-92.75893769 105.3767104 532
-90.15487438 105.574787 533
-87.54038548 105.7728635 534
-85.07419148 106.1690165 536
-82.43363858 106.3670931 537
-79.63436517 106.3670931 537
-77.12125597 106.7632461 539
-74.44942627 106.9613226 540
-71.76717098 107.1593992 541
-69.07449008 107.3574757 542
-66.6158454 107.9517052 545
-63.8918877 108.1497818 546
-61.26930971 108.5459348 548
-58.73247304 109.1401644 551
-55.96160015 109.3382409 552
-53.18030165 109.5363174 553
-50.29762345 109.5363174 553
-47.50068656 109.734394 554
-44.61279556 109.734394 554
-41.64958884 109.5363174 553
-38.62670481 109.1401644 551
-35.6895621 108.9420879 550
-32.70316767 108.5459348 548
-29.79208895 108.3478583 547
-26.7929324 107.7536287 544
-23.82505265 107.1593992 541
-20.96610193 106.9613226 540
-18.11757681 106.7632461 539
-15.27947728 106.5651696 538
-12.47499107 106.5651696 538
-9.670504865 106.5651696 538
-6.866018657 106.5651696 538
-4.061532448 106.5651696 538
-1.25704624 106.5651696 538
1.547439969 106.5651696 538
4.351926177 106.5651696 538
7.156412385 106.5651696 538
9.960898594 106.5651696 538
12.7653848 106.5651696 538
15.54093073 106.3670931 537
18.34020414 106.3670931 537
21.10011167 106.1690165 536
23.8495936 105.97094 535
26.58864993 105.7728635 534
29.31728066 105.574787 533
32.03548579 105.3767104 532
34.74326532 105.1786339 531
37.51126193 105.1786339 531
40.27925854 105.1786339 531
43.12832343 105.3767104 532
46.074095 105.7728635 534
48.85773001 105.7728635 534
51.73807169 105.97094 535
54.5269195 105.97094 535
57.42289959 106.1690165 536
60.2169602 106.1690165 536
63.0110208 106.1690165 536
65.68231074 105.97094 535
68.34317508 105.7728635 534
71.12681008 105.7728635 534
73.77203602 105.574787 533
76.40683636 105.3767104 532
79.0312111 105.1786339 531
81.79920771 105.1786339 531
84.40794405 104.9805574 530
87.00625479 104.7824809 529
89.59413993 104.5844043 528
92.17159947 104.3863278 527
94.91874488 104.3863278 527
97.48056602 104.1882513 526
100.2224986 104.1882513 526
102.9644312 104.1882513 526
105.5054012 103.9901748 525
108.242121 103.9901748 525
110.7674526 103.7920983 524
113.2823585 103.5940217 523
116.0086527 103.5940217 523
118.7349469 103.5940217 523
121.2290017 103.3959452 522
123.9500831 103.3959452 522
126.6711645 103.3959452 522
129.3922459 103.3959452 522
132.366418 103.5940217 523
135.6093191 103.9901748 525
138.8730715 104.3863278 527
142.157675 104.7824809 529
146.5588972 105.97094 535
150.185209 106.5651696 538
153.2740627 106.7632461 539
156.6629222 107.1593992 541
-359.897329 88.02427687 433
-357.6401868 88.02427687 433
-358.6660288 88.83743416 437
-357.2035686 89.04072349 438
-355.153319 90.26045942 444
-353.6335181 90.46374875 445
-352.1032915 90.66703807 446
-351.3468958 91.07361672 448
-349.7906052 91.27690604 449
-347.4500581 91.27690604 449
-345.1095111 91.27690604 449
-342.7689641 91.27690604 449
-340.428417 91.27690604 449
-338.08787 91.27690604 449
-335.7473229 91.27690604 449
-333.4067759 91.27690604 449
-331.0662289 91.27690604 449
-328.7256818 91.27690604 449
-327.1120505 91.48019536 450
-324.7662906 91.48019536 450
-322.4205308 91.48019536 450
-320.0747709 91.48019536 450
-317.7290111 91.48019536 450
-315.3832513 91.48019536 450
-313.0374914 91.48019536 450
-310.6917316 91.48019536 450
-309.031185 91.68348469 451
-306.6802124 91.68348469 451
-304.3292397 91.68348469 451
-301.9782671 91.68348469 451
-299.6272944 91.68348469 451
-297.2763218 91.68348469 451
-295.5792856 91.88677401 452
-292.5743765 91.68348469 451
-290.2234039 91.68348469 451
-287.8724313 91.68348469 451
-285.5214586 91.68348469 451
-283.7983584 91.88677401 452
-281.442173 91.88677401 452
-279.0859876 91.88677401 452
-277.3420362 92.09006333 453
-274.980638 92.09006333 453
-273.2210482 92.29335265 454
-270.8544372 92.29335265 454
-269.079209 92.49664198 455
-267.2935552 92.6999313 456
-264.9165186 92.6999313 456
-263.1152264 92.90322062 457
-261.3035087 93.10650995 458
-259.4813653 93.30979927 459
-257.0886903 93.30979927 459
-255.8058018 93.71637792 461
-253.4027012 93.71637792 461
-251.5440682 93.91966724 462
-249.1357548 93.91966724 462
-247.2614834 94.12295656 463
-243.4816639 94.52953521 465
-242.0945195 94.93611385 467
-240.1733329 95.13940318 468
-237.7337427 95.13940318 468
-235.7969177 95.3426925 469
-233.8496672 95.54598182 470
-231.891991 95.74927115 471
-229.4367624 95.74927115 471
-227.4634478 95.95256047 472
-225.4797077 96.15584979 473
-223.0140535 96.15584979 473
-220.5483992 96.15584979 473
-219.0048708 96.56242844 475
-216.984641 96.76571776 476
-214.9539857 96.96900708 477
-213.3583292 97.37558573 479
-211.7418216 97.78216438 481
-210.1044627 98.18874302 483
-208.0164666 98.39203235 484
-206.3426181 98.79861099 486
-204.228558 99.00190031 487
-202.1040723 99.20518964 488
-199.9691609 99.40847896 489
-197.823824 99.61176828 490
-195.6680614 99.81505761 491
-193.1085768 99.81505761 491
-190.9371759 100.0183469 492
-188.7553494 100.2216363 493
-186.1854391 100.2216363 493
-183.9879742 100.4249256 494
-181.7800837 100.6282149 495
-179.1997478 100.6282149 495
-176.619412 100.6282149 495
-174.3906703 100.8315042 496
-172.151503 101.0347935 497
-169.5607415 101.0347935 497
-166.9699801 101.0347935 497
-164.3792187 101.0347935 497
-162.1139874 101.2380829 498
-159.5180131 101.2380829 498
-156.9220389 101.2380829 498
-154.6359564 101.4413722 499
-152.6441272 101.8479508 501
-150.0325145 101.8479508 501
-148.0094085 102.2545295 503
-146.5435323 103.0676868 507
-144.4682983 103.4742654 509
-142.372213 103.8808441 511
-140.8020808 104.6940014 515
-138.6538676 105.10058 517
-136.2218267 105.3038693 518
-132.0841207 106.3203159 523
-129.8525027 106.7268946 525
-127.3579082 106.9301839 526
-125.0898006 107.3367626 528
-121.874043 106.9301839 526
-119.3585973 107.1334732 527
-116.3901778 106.9301839 526
-113.6482452 106.9301839 526
-110.9063125 106.9301839 526
-108.1643799 106.9301839 526
-105.6228702 107.1334732 527
-102.8757248 107.1334732 527
-100.3185767 107.3367626 528
-97.75100299 107.5400519 529
-95.17300369 107.7433412 530
-92.58457878 107.9466305 531
-89.98572827 108.1499199 532
-87.37645217 108.3532092 533
-84.91547097 108.7597878 535
-82.28013087 108.9630771 536
-79.63436517 109.1663665 537
-76.97817387 109.3696558 538
-74.31155697 109.5729451 539
-71.76717098 109.9795238 541
-69.07449008 110.1828131 542
-66.6158454 110.792681 545
-63.8918877 110.9959704 546
-61.1575044 111.1992597 547
-58.62588053 111.8091277 550
-55.86022044 112.012417 551
-53.08413474 112.2157063 552
-50.20666934 112.2157063 552
-47.32920394 112.2157063 552
-44.45173853 112.2157063 552
-41.49895742 112.012417 551
-38.48649899 111.6058383 549
-35.49489176 111.1992597 547
-32.52413573 110.792681 545
-29.62869541 110.5893917 544
-26.69442897 110.1828131 542
-23.78101374 109.7762344 540
-20.8884497 109.3696558 538
-18.08396349 109.3696558 538
-15.25107677 109.1663665 537
-12.42861564 108.9630771 536
-9.652529949 109.1663665 537
-6.85325654 109.1663665 537
-4.053983131 109.1663665 537
-1.254709723 109.1663665 537
1.547439969 109.3696558 538
4.351926177 109.3696558 538
7.143110504 109.1663665 537
9.923869231 108.9630771 536
12.71792984 108.9630771 536
15.48305017 108.7597878 535
18.27189798 108.7597878 535
20.98201403 108.3532092 533
23.76043624 108.3532092 533
26.48906697 108.1499199 532
29.26227638 108.1499199 532
31.97526871 107.9466305 531
34.67783544 107.7433412 530
37.44061926 107.7433412 530
40.20340307 107.7433412 530
43.04725516 107.9466305 531
45.81525177 107.9466305 531
48.67474225 108.1499199 532
51.54465834 108.3532092 533
54.32308055 108.3532092 533
57.20863504 108.5564985 534
59.99227005 108.5564985 534
62.77590506 108.5564985 534
65.43676939 108.3532092 533
68.2151916 108.3532092 533
70.86041754 108.1499199 532
73.63362695 108.1499199 532
76.26321449 107.9466305 531
79.0312111 107.9466305 531
81.64516024 107.7433412 530
84.24868378 107.5400519 529
86.84178172 107.3367626 528
89.42445406 107.1334732 527
91.9967008 106.9301839 526
94.73863341 106.9301839 526
97.48056602 106.9301839 526
100.2224986 106.9301839 526
102.7686814 106.7268946 525
105.5054012 106.7268946 525
108.0359455 106.5236053 524
110.5560643 106.3203159 523
113.2823585 106.3203159 523
115.7868388 106.1170266 522
118.5079203 106.1170266 522
120.9967622 105.9137373 521
123.7126308 105.9137373 521
