# .PCD v0.7 - Point Cloud Data file format
VERSION 0.7
FIELDS x y z
SIZE 4 4 4
TYPE F F F
COUNT 1 1 1
WIDTH 1661
HEIGHT 1
VIEWPOINT 0 0 0 1 0 0 0
POINTS 1661
DATA ascii
291.3100546 -185.4133553 456
293.0430406 -185.0067471 455
295.4148644 -185.0067471 455
297.7866883 -185.0067471 455
300.1585121 -185.0067471 455
302.5303359 -185.0067471 455
305.5722744 -185.4133553 456
434.1846707 -259.4160541 638
436.8246838 -259.0094459 637
185.6951477 -197.0851589 491
187.1044004 -195.8809726 488
188.8709997 -195.0781817 486
190.2229115 -193.8739954 483
191.9425957 -193.0712046 481
192.8329049 -191.4656228 477
194.9099356 -191.0642274 476
196.9765408 -190.6628319 475
199.4526206 -190.6628319 475
201.0784744 -189.8600411 473
203.1138027 -189.4586456 472
204.7031669 -188.6558548 470
207.1531827 -188.6558548 470
209.1572343 -188.2544593 469
210.6996832 -187.4516685 467
212.6776708 -187.050273 466
214.6452328 -186.6488776 465
217.0691846 -186.6488776 465
218.5490799 -185.8460867 463
220.0081241 -185.0432958 461
221.9287709 -184.6419004 460
223.8389921 -184.240505 459
225.7387876 -183.8391095 458
227.6281576 -183.4377141 457
229.507102 -183.0363187 456
231.8841387 -183.0363187 456
233.7474446 -182.6349232 455
236.1192685 -182.6349232 455
238.4910923 -182.6349232 455
240.3335471 -182.2335278 454
242.7001582 -182.2335278 454
245.0667692 -182.2335278 454
247.4333802 -182.2335278 454
249.7999913 -182.2335278 454
252.1666023 -182.2335278 454
253.9725675 -181.8321324 453
256.3339657 -181.8321324 453
259.8375069 -182.6349232 455
262.2093307 -182.6349232 455
264.5811545 -182.6349232 455
266.3662685 -182.2335278 454
268.7328796 -182.2335278 454
271.0994906 -182.2335278 454
273.4661016 -182.2335278 454
275.8327127 -182.2335278 454
278.1993237 -182.2335278 454
281.1839214 -182.6349232 455
283.5557452 -182.6349232 455
285.9275691 -182.6349232 455
288.933018 -183.0363187 456
291.3100546 -183.0363187 456
293.6870912 -183.0363187 456
296.0641279 -183.0363187 456
298.4411645 -183.0363187 456
300.1585121 -182.6349232 455
303.1952378 -183.0363187 456
304.9021598 -182.6349232 455
307.9493111 -183.0363187 456
435.5457512 -256.8930788 640
439.567696 -257.2944743 641
188.8709997 -192.5447611 486
189.8290753 -190.9600306 482
191.5435466 -190.1676653 480
192.8329049 -188.9791174 477
194.9099356 -188.5829347 476
196.9765408 -188.1867521 475
199.4526206 -188.1867521 475
201.0784744 -187.3943868 473
203.1138027 -186.9982042 472
205.1387055 -186.6020216 471
207.5939342 -186.6020216 471
209.1572343 -185.8096563 469
211.1508603 -185.4134737 468
213.1340606 -185.017291 467
215.5684381 -185.017291 467
217.5360001 -184.6211084 466
219.0211082 -183.8287431 464
224.3266587 -182.2440126 460
226.2316671 -181.8478299 459
228.1262499 -181.4516473 458
230.0104071 -181.0554647 457
232.3926565 -181.0554647 457
234.7749059 -181.0554647 457
236.6382119 -180.659282 456
239.0152486 -180.659282 456
241.3922852 -180.659282 456
243.23474 -180.2630994 455
245.6065638 -180.2630994 455
247.9783877 -180.2630994 455
252.7220353 -180.2630994 455
255.0938592 -180.2630994 455
257.465683 -180.2630994 455
260.4085783 -180.659282 456
262.7856149 -180.659282 456
264.5811545 -180.2630994 455
266.9529784 -180.2630994 455
269.3248022 -180.2630994 455
271.0994906 -179.8669168 454
273.4661016 -179.8669168 454
275.8327127 -179.8669168 454
278.1993237 -179.8669168 454
281.1839214 -180.2630994 455
283.5557452 -180.2630994 455
286.5559813 -180.659282 456
288.933018 -180.659282 456
291.3100546 -180.659282 456
293.6870912 -180.659282 456
296.0641279 -180.659282 456
298.4411645 -180.659282 456
300.8182011 -180.659282 456
303.1952378 -180.659282 456
304.9021598 -180.2630994 455
307.2739836 -180.2630994 455
435.5457512 -253.5568871 640
188.0937528 -189.2294008 484
189.435239 -188.0564913 481
191.1444975 -187.2745516 479
192.428643 -186.1016421 476
194.9099356 -186.1016421 476
196.9765408 -185.7106723 475
199.4526206 -185.7106723 475
201.0784744 -184.9287326 473
203.5441286 -184.9287326 473
205.5742442 -184.5377628 472
207.5939342 -184.1467929 471
209.6031985 -183.7558231 470
211.1508603 -182.9738834 468
213.1340606 -182.5829136 467
215.5684381 -182.5829136 467
217.5360001 -182.1919438 466
219.0211082 -181.4100041 464
224.8143254 -180.2370946 461
226.7245465 -179.8461247 460
228.6243421 -179.4551549 459
230.5137121 -179.0641851 458
232.9011744 -179.0641851 458
235.2886366 -179.0641851 458
237.1571554 -178.6732152 457
239.5394048 -178.6732152 457
241.9216543 -178.6732152 457
243.7693218 -178.2822454 456
246.1463585 -178.2822454 456
248.5233951 -178.2822454 456
255.654505 -178.2822454 456
258.0315417 -178.2822454 456
260.4085783 -178.2822454 456
262.7856149 -178.2822454 456
265.1626516 -178.2822454 456
266.9529784 -177.8912756 455
269.3248022 -177.8912756 455
271.0994906 -177.5003057 454
274.0684499 -177.8912756 455
275.8327127 -177.5003057 454
278.8120976 -177.8912756 455
281.1839214 -177.8912756 455
284.1789447 -178.2822454 456
286.5559813 -178.2822454 456
288.933018 -178.2822454 456
291.9488924 -178.6732152 457
293.6870912 -178.2822454 456
296.0641279 -178.2822454 456
298.4411645 -178.2822454 456
300.1585121 -177.8912756 455
302.5303359 -177.8912756 455
304.9021598 -177.8912756 455
307.2739836 -177.8912756 455
436.9068316 -251.002635 642
192.8329049 -184.0061065 477
194.9099356 -183.6203495 476
196.9765408 -183.2345924 475
199.4526206 -183.2345924 475
201.0784744 -182.4630784 473
203.5441286 -182.4630784 473
205.5742442 -182.0773213 472
207.5939342 -181.6915643 471
209.6031985 -181.3058073 470
211.1508603 -180.5342932 468
213.5904505 -180.5342932 468
215.5684381 -180.1485362 467
218.0028155 -180.1485362 467
219.4931364 -179.3770221 465
220.9626062 -178.605508 463
222.8936786 -178.219751 462
224.8143254 -177.8339939 461
226.7245465 -177.4482369 460
228.6243421 -177.0624799 459
231.0170172 -177.0624799 459
233.4096922 -177.0624799 459
235.2886366 -176.6767228 458
241.9216543 -176.2909658 457
244.3039037 -176.2909658 457
246.6861531 -176.2909658 457
249.0684026 -176.2909658 457
251.450652 -176.2909658 457
253.8329014 -176.2909658 457
256.2151509 -176.2909658 457
258.5974003 -176.2909658 457
260.9796498 -176.2909658 457
263.3618992 -176.2909658 457
265.1626516 -175.9052088 456
266.9529784 -175.5194517 455
269.3248022 -175.5194517 455
271.6966261 -175.5194517 455
274.0684499 -175.5194517 455
275.8327127 -175.1336947 454
278.8120976 -175.5194517 455
281.801908 -175.9052088 456
284.1789447 -175.9052088 456
287.1843936 -176.2909658 457
290.200268 -176.6767228 458
292.5877303 -176.6767228 458
294.3311419 -176.2909658 457
296.7133913 -176.2909658 457
299.0956407 -176.2909658 457
300.8182011 -175.9052088 456
303.1952378 -175.9052088 456
304.9021598 -175.5194517 455
307.9493111 -175.9052088 456
310.3263477 -175.9052088 456
199.0327204 -180.3779684 474
201.0784744 -179.9974241 473
203.5441286 -179.9974241 473
205.5742442 -179.6168799 472
207.5939342 -179.2363357 471
209.6031985 -178.8557914 470
211.6020373 -178.4752472 469
213.5904505 -178.094703 468
216.0300407 -178.094703 468
218.0028155 -177.7141587 467
219.4931364 -176.9530702 465
221.4398472 -176.572526 464
223.3761324 -176.1919818 463
225.301992 -175.8114375 462
227.217426 -175.4308933 461
229.1224344 -175.0503491 460
231.5203222 -175.0503491 460
233.91821 -175.0503491 460
236.3160979 -175.0503491 460
241.1118736 -175.0503491 460
242.4510233 -174.2892606 458
244.8384855 -174.2892606 458
247.2259478 -174.2892606 458
249.61341 -174.2892606 458
252.0008722 -174.2892606 458
253.8329014 -173.9087164 457
256.7757967 -174.2892606 458
259.163259 -174.2892606 458
261.5507212 -174.2892606 458
263.9381834 -174.2892606 458
265.7441486 -173.9087164 457
268.1263981 -173.9087164 457
269.9167249 -173.5281721 456
272.2937615 -173.5281721 456
274.6707981 -173.5281721 456
298.6611816 -175.0503491 460
306.2423891 -173.9087164 457
308.6246385 -173.9087164 457
440.990073 -246.5926656 648
197.3912283 -178.6577642 476
199.4526206 -178.2824328 475
201.9287005 -178.2824328 475
206.0097828 -177.5317699 473
208.0346856 -177.1564385 472
210.0491628 -176.781107 471
212.0532144 -176.4057756 470
214.0468403 -176.0304442 469
216.4916434 -176.0304442 469
218.469631 -175.6551127 468
219.9651647 -174.9044499 466
221.9170883 -174.5291184 465
223.8585863 -174.153787 464
226.2773253 -174.153787 464
228.2031849 -173.7784555 463
230.1186189 -173.4031241 462
232.5269323 -173.4031241 462
234.9352457 -173.4031241 462
236.8298285 -173.0277927 461
239.2329292 -173.0277927 461
241.6360298 -173.0277927 461
244.0391304 -173.0277927 461
245.9076492 -172.6524612 460
248.3055371 -172.6524612 460
250.1584175 -172.2771298 459
252.5510925 -172.2771298 459
254.9437675 -172.2771298 459
257.3364426 -172.2771298 459
259.7291176 -172.2771298 459
262.1217926 -172.2771298 459
264.5144677 -172.2771298 459
266.3256457 -171.9017984 458
268.7131079 -171.9017984 458
270.5086475 -171.5264669 457
272.8908969 -171.5264669 457
275.2731464 -171.5264669 457
292.7347682 -173.4031241 462
306.9125037 -171.9017984 458
309.2999659 -171.9017984 458
199.8725209 -176.1764716 476
201.9287005 -175.806353 475
204.4047803 -175.806353 475
206.4453215 -175.4362343 474
208.9161885 -175.4362343 474
210.495127 -174.695997 472
212.5043914 -174.3258784 471
214.5032302 -173.9557598 470
216.4916434 -173.5856411 469
218.469631 -173.2155225 468
220.4371929 -172.8454039 467
222.3943293 -172.4752852 466
224.823494 -172.4752852 466
226.7649919 -172.1051666 465
228.6960643 -171.7350479 464
230.6167111 -171.3649293 463
233.0302374 -171.3649293 463
235.4437636 -171.3649293 463
237.8572898 -171.3649293 463
240.2708161 -171.3649293 463
242.160186 -170.9948107 462
244.5684995 -170.9948107 462
246.9768129 -170.9948107 462
248.8453317 -170.624692 461
251.2484323 -170.624692 461
253.651533 -170.624692 461
255.4992006 -170.2545734 460
257.8970884 -170.2545734 460
260.2949762 -170.2545734 460
262.6928641 -170.2545734 460
264.5144677 -169.8844548 459
266.9071427 -169.8844548 459
268.7131079 -169.5143361 458
271.1005701 -169.5143361 458
273.4880324 -169.5143361 458
275.8754946 -169.5143361 458
278.2629569 -169.5143361 458
290.3264548 -170.9948107 462
293.3683932 -171.3649293 463
295.7819195 -171.3649293 463
297.5513951 -170.9948107 462
299.9597085 -170.9948107 462
301.7135457 -170.624692 461
303.4569573 -170.2545734 460
305.8548451 -170.2545734 460
307.5826183 -169.8844548 459
309.2999659 -169.5143361 458
202.3538135 -173.695179 476
204.8351062 -173.695179 476
206.8808601 -173.3302731 475
209.35694 -173.3302731 475
210.9410913 -172.6004614 473
212.9555685 -172.2355556 472
217.4148487 -171.8706498 471
219.4032619 -171.5057439 470
220.9092212 -170.7759323 468
223.3488114 -170.7759323 468
225.3059478 -170.4110264 467
227.2526586 -170.0461206 466
229.1889438 -169.6812147 465
231.6128956 -169.6812147 465
234.0368475 -169.6812147 465
235.9522814 -169.3163089 464
238.3710205 -169.3163089 464
240.2708161 -168.9514031 463
242.6843423 -168.9514031 463
245.0978685 -168.9514031 463
247.5113948 -168.9514031 463
249.3851264 -168.5864972 462
251.7934398 -168.5864972 462
253.651533 -168.2215914 461
256.0546336 -168.2215914 461
258.4577343 -168.2215914 461
260.8608349 -168.2215914 461
263.2639355 -168.2215914 461
265.0907519 -167.8566856 460
266.9071427 -167.4917797 459
269.2998177 -167.4917797 459
271.6924928 -167.4917797 459
274.0851678 -167.4917797 459
276.4778429 -167.4917797 459
278.8705179 -167.4917797 459
282.4887406 -168.2215914 461
284.8918412 -168.2215914 461
288.5413408 -168.9514031 463
291.5832792 -169.3163089 464
294.0020183 -169.3163089 464
296.4207573 -169.3163089 464
298.1954457 -168.9514031 463
300.6089719 -168.9514031 463
302.3680219 -168.5864972 462
304.1166463 -168.2215914 461
305.8548451 -167.8566856 460
307.5826183 -167.4917797 459
203.2040396 -171.9332724 478
205.6957579 -171.9332724 478
207.7519374 -171.5735794 477
209.7976914 -171.2138863 476
211.8330198 -170.8541933 475
214.3090996 -170.8541933 475
216.3287896 -170.4945003 474
217.8764513 -169.7751142 472
219.8700773 -169.4154211 471
221.3812494 -168.6960351 469
223.8260525 -168.6960351 469
225.7884017 -168.336342 468
227.7403252 -167.976649 467
230.1747027 -167.976649 467
232.1109879 -167.6169559 466
234.0368475 -167.2572629 465
236.4607993 -167.2572629 465
238.8847511 -167.2572629 465
241.308703 -167.2572629 465
243.7326548 -167.2572629 465
246.1566066 -167.2572629 465
248.0459766 -166.8975699 464
250.4647156 -166.8975699 464
252.3384472 -166.5378768 463
254.7519735 -166.5378768 463
256.6100667 -166.1781838 462
259.0183801 -166.1781838 462
261.4266935 -166.1781838 462
263.835007 -166.1781838 462
265.6670362 -165.8184908 461
268.0701368 -165.8184908 461
270.4732374 -165.8184908 461
274.6823033 -165.4587977 460
277.0801911 -165.4587977 460
280.08564 -165.8184908 461
286.7458012 -166.8975699 464
289.7877396 -167.2572629 465
292.2116915 -167.2572629 465
294.6356433 -167.2572629 465
297.0595951 -167.2572629 465
299.483547 -167.2572629 465
301.2582354 -166.8975699 464
303.0224982 -166.5378768 463
304.7763354 -166.1781838 462
306.519747 -165.8184908 461
308.9228476 -165.8184908 461
203.2040396 -169.4415542 478
205.6957579 -169.4415542 478
208.1874761 -169.4415542 478
210.6791943 -169.4415542 478
212.278984 -168.7325937 476
214.7602767 -168.7325937 476
217.2415693 -168.7325937 476
219.2612593 -168.3781135 475
221.7373391 -168.3781135 475
222.7973342 -167.3146727 472
224.7805346 -166.9601925 471
227.2357632 -166.9601925 471
229.2033252 -166.6057123 470
230.6675821 -165.8967518 468
233.1071724 -165.8967518 468
235.5467626 -165.8967518 468
237.9863528 -165.8967518 468
240.4259431 -165.8967518 468
242.3465899 -165.5422716 467
244.7809673 -165.5422716 467
247.2153447 -165.5422716 467
249.6497222 -165.5422716 467
251.5443049 -165.1877913 466
253.4284621 -164.8333111 465
255.852414 -164.8333111 465
258.2763658 -164.8333111 465
260.1396718 -164.4788308 464
261.9925522 -164.1243506 463
264.4060784 -164.1243506 463
266.2433204 -163.7698704 462
268.6516338 -163.7698704 462
270.4732374 -163.4153901 461
275.2794387 -163.4153901 461
277.6825393 -163.4153901 461
280.693201 -163.7698704 462
287.3637878 -164.8333111 465
290.4109391 -165.1877913 466
292.8401037 -165.1877913 466
295.2692684 -165.1877913 466
297.698433 -165.1877913 466
299.483547 -164.8333111 465
304.7763354 -163.7698704 462
204.9044918 -168.3469057 482
206.9867354 -167.9976383 481
209.0585534 -167.6483708 480
211.5606972 -167.6483708 480
213.1709126 -166.949836 478
215.2114537 -166.6005685 477
217.6979592 -166.6005685 477
219.7228619 -166.2513011 476
222.2041546 -166.2513011 476
223.7413907 -165.5527662 474
225.7350167 -165.2034988 473
227.2357632 -164.5049639 471
229.6909918 -164.5049639 471
231.653341 -164.1556964 470
233.6052646 -163.806429 469
236.0500676 -163.806429 469
238.4948707 -163.806429 469
240.4259431 -163.4571616 468
242.8655333 -163.4571616 468
245.3051235 -163.4571616 468
247.7447138 -163.4571616 468
250.184304 -163.4571616 468
252.0840996 -163.1078941 467
253.9734696 -162.7586267 466
256.4026342 -162.7586267 466
258.8317988 -162.7586267 466
260.7003176 -162.4093592 465
263.1242695 -162.4093592 465
264.9771499 -162.0600918 464
266.8196046 -161.7108244 463
269.2331309 -161.7108244 463
271.0599473 -161.3615569 462
275.8765741 -161.3615569 462
281.3007621 -161.7108244 463
287.3637878 -162.4093592 465
292.8401037 -162.7586267 466
295.2692684 -162.7586267 466
299.483547 -162.4093592 465
305.4360244 -161.7108244 463
204.0715234 -167.2105548 486
205.754718 -166.5224456 484
207.4170613 -165.8343363 482
209.9296307 -165.8343363 482
212.0014487 -165.4902816 481
213.6168768 -164.8021724 479
215.6626308 -164.4581177 478
218.154349 -164.4581177 478
220.6460672 -164.4581177 478
222.67097 -164.1140631 477
224.213419 -163.4259538 475
225.7350167 -162.7378445 473
227.7182171 -162.3937899 472
229.6909918 -162.0497352 471
231.653341 -161.7056806 470
234.1033569 -161.7056806 470
236.0500676 -161.361626 469
239.0033885 -161.7056806 470
240.9396737 -161.361626 469
243.3844767 -161.361626 469
245.8292798 -161.361626 469
248.2740828 -161.361626 469
250.7188858 -161.361626 469
252.6238942 -161.0175713 468
254.518477 -160.6735167 467
256.9528545 -160.6735167 467
259.3872319 -160.6735167 467
261.2609635 -160.329462 466
263.6901281 -160.329462 466
265.5482213 -159.9854074 465
267.9721731 -159.9854074 465
269.8146279 -159.6413528 464
271.6466571 -159.2972981 463
275.8765741 -158.9532435 462
281.3007621 -159.2972981 463
290.4109391 -160.329462 466
295.2692684 -160.329462 466
297.698433 -160.329462 466
299.483547 -159.9854074 465
301.9074988 -159.9854074 465
303.6769744 -159.6413528 464
305.4360244 -159.2972981 463
204.4914237 -165.0159761 487
206.6049441 -164.6771342 486
214.5088053 -162.982925 481
216.5649849 -162.6440832 480
218.6107389 -162.3052413 479
221.1076699 -162.3052413 479
222.67097 -161.6275577 477
224.6854472 -161.2887158 476
226.6894988 -160.949874 475
228.2006709 -160.2721903 473
230.1786585 -159.9333485 472
232.1462205 -159.5945066 471
234.6014491 -159.5945066 471
237.0566777 -159.5945066 471
239.5119064 -159.5945066 471
241.967135 -159.5945066 471
243.9034202 -159.2556648 470
246.353436 -159.2556648 470
248.2740828 -158.9168229 469
250.7188858 -158.9168229 469
253.1636889 -158.9168229 469
255.0634845 -158.5779811 468
257.5030747 -158.5779811 468
259.9426649 -158.5779811 468
261.8216093 -158.2391393 467
264.2559868 -158.2391393 467
266.1192927 -157.9002974 466
268.5484574 -157.9002974 466
270.977622 -157.9002974 466
273.4067866 -157.9002974 466
195.7366191 -165.813633 497
198.3273805 -165.813633 497
199.7053564 -164.8127459 494
201.8710048 -164.4791169 493
203.6115401 -163.8118588 491
204.9113239 -162.8109717 488
207.0300571 -162.4773426 487
215.4007338 -161.1428265 483
217.918516 -161.1428265 483
219.9799084 -160.8091974 482
222.4924778 -160.8091974 482
231.6416584 -158.4737941 475
233.1319794 -157.8065361 473
235.5976336 -157.8065361 473
242.4808657 -157.472907 472
244.9413071 -157.472907 472
247.4017485 -157.472907 472
249.3328209 -157.139278 471
251.7880495 -157.139278 471
254.2432782 -157.139278 471
256.1534994 -156.8056489 470
258.6035152 -156.8056489 470
260.498098 -156.4720199 469
262.942901 -156.4720199 469
265.387704 -156.4720199 469
267.2614356 -156.1383909 468
269.7010259 -156.1383909 468
271.5591191 -155.8047618 467
273.9934965 -155.8047618 467
195.7366191 -163.2228716 497
198.3273805 -163.2228716 497
200.1096183 -162.5660391 495
201.8710048 -161.9092066 493
204.440915 -161.9092066 493
206.1710247 -161.2523742 491
208.3053963 -160.9239579 490
209.9990164 -160.2671254 488
212.107324 -159.9387092 487
214.2052059 -159.610293 486
216.2926623 -159.2818767 485
218.3696931 -158.9534605 484
220.8926881 -158.9534605 484
222.9540805 -158.6250442 483
225.0050473 -158.296628 482
242.9945963 -155.3408818 473
245.4602505 -155.3408818 473
247.4017485 -155.0124656 472
249.86219 -155.0124656 472
251.7880495 -154.6840493 471
254.2432782 -154.6840493 471
256.6985068 -154.6840493 471
259.1537354 -154.6840493 471
261.6089641 -154.6840493 471
264.0641927 -154.6840493 471
265.9535627 -154.3556331 470
267.8325071 -154.0272169 469
270.2773101 -154.0272169 469
272.1406161 -153.6988006 468
195.7366191 -160.6321102 497
198.3273805 -160.6321102 497
200.5138801 -160.3089067 496
202.6899541 -159.9857033 495
204.440915 -159.3392964 493
206.590925 -159.016093 492
208.7305093 -158.6928895 491
210.8596681 -158.3696861 490
212.9784013 -158.0464827 489
214.6459574 -157.4000758 487
216.7386266 -157.0768723 486
219.2720472 -157.0768723 486
221.349078 -156.7536689 485
223.4156831 -156.4304654 484
225.9386782 -156.4304654 484
243.5083269 -153.198431 474
245.979194 -153.198431 474
247.9259048 -152.8752276 473
250.391559 -152.8752276 473
252.8572132 -152.8752276 473
254.7830728 -152.5520242 472
257.2435142 -152.5520242 472
259.7039557 -152.5520242 472
262.1643971 -152.5520242 472
264.6248385 -152.5520242 472
266.5194213 -152.2288207 471
268.4035785 -151.9056173 470
271.4298786 -152.2288207 471
273.3036102 -151.9056173 470
196.5242916 -158.67733 499
198.7264296 -158.3593394 498
200.918142 -158.0413488 497
202.6899541 -157.4053675 495
205.2702899 -157.4053675 495
207.0108252 -156.7693862 493
209.1556224 -156.4513956 492
211.289994 -156.1334049 491
213.4139399 -155.8154143 490
215.0867088 -155.179433 488
217.6305551 -155.179433 488
219.7232242 -154.8614423 487
222.2618577 -154.8614423 487
224.3388885 -154.5434517 486
225.9386782 -153.9074704 484
227.989645 -153.5894798 483
230.0301861 -153.2714891 482
232.0603017 -152.9534985 481
234.5676583 -152.9534985 481
237.075015 -152.9534985 481
238.0880949 -151.9995266 478
239.573203 -151.3635453 476
242.5630135 -151.6815359 477
244.5357882 -151.3635453 476
246.4981374 -151.0455546 475
248.9742173 -151.0455546 475
251.4502971 -151.0455546 475
253.3917951 -150.727564 474
255.8626621 -150.727564 474
257.7885217 -150.4095734 473
260.2541759 -150.4095734 473
262.7198302 -150.4095734 473
264.6248385 -150.0915827 472
267.08528 -150.0915827 472
269.5457214 -150.0915827 472
272.0061628 -150.0915827 472
275.0481013 -150.4095734 473
277.5137555 -150.4095734 473
196.9181279 -156.3889209 500
199.1254786 -156.076143 499
201.3224038 -155.7633652 498
203.5089034 -155.4505873 497
205.6849774 -155.1378095 496
207.4307255 -154.5122538 494
209.5807354 -154.199476 493
211.7203198 -153.8866981 492
213.8494786 -153.5739203 491
215.9682118 -153.2611424 490
218.0765193 -152.9483646 489
220.6255784 -152.9483646 489
222.7182475 -152.6355868 488
224.8004911 -152.3228089 487
226.4054936 -151.6972532 485
228.4616732 -151.3844754 484
230.9846682 -151.3844754 484
233.5076633 -151.3844754 484
235.055325 -150.7589197 482
237.075015 -150.4461419 481
239.0842793 -150.133364 480
241.0831181 -149.8205862 479
243.0715313 -149.5078083 478
245.5632495 -149.5078083 478
247.5360243 -149.1950305 477
250.546686 -149.5078083 478
252.5090352 -149.1950305 477
254.4609588 -148.8822527 476
256.9422514 -148.8822527 476
259.423544 -148.8822527 476
261.3546164 -148.5694748 475
263.8306962 -148.5694748 475
266.3067761 -148.5694748 475
268.2169973 -148.256697 474
270.6878643 -148.256697 474
273.1587313 -148.256697 474
276.2110954 -148.5694748 475
278.6871752 -148.5694748 475
283.0421994 -148.256697 474
289.1990556 -148.8822527 476
198.4934729 -155.0127812 504
200.7216749 -154.7052162 503
202.9394512 -154.3976511 502
204.7373273 -153.782521 500
208.6904262 -152.8598259 497
210.8560746 -152.5522609 496
213.0112974 -152.2446958 495
215.1560945 -151.9371308 494
217.2904661 -151.6295657 493
218.9684478 -151.0144357 491
221.5279325 -151.0144357 491
223.1746374 -150.3993056 489
225.2620938 -150.0917405 488
226.8723091 -149.4766104 486
228.9337015 -149.1690454 485
231.4619093 -149.1690454 485
233.5076633 -148.8614804 484
235.055325 -148.2463503 482
237.5678944 -148.2463503 482
239.5823716 -147.9387852 481
241.0831181 -147.3236552 479
243.5800492 -147.3236552 479
245.5632495 -147.0160901 478
248.5739112 -147.3236552 479
251.0708422 -147.3236552 479
253.5677733 -147.3236552 479
255.5301225 -147.0160901 478
258.0218407 -147.0160901 478
259.9685515 -146.7085251 477
261.9048367 -146.40096 476
264.3861293 -146.40096 476
266.3067761 -146.093395 475
268.7828559 -146.093395 475
271.2589357 -146.093395 475
273.7350156 -146.093395 475
276.2110954 -146.093395 475
278.6871752 -146.093395 475
283.6393349 -146.093395 475
289.1990556 -146.40096 476
197.4207157 -153.5949392 508
199.2811454 -152.9902347 506
201.918822 -152.9902347 506
203.7479749 -152.3855302 504
205.5562767 -151.7808257 502
207.3437272 -151.1761212 500
209.5302267 -150.873769 499
211.7063007 -150.5714167 498
214.3022749 -150.5714167 498
216.4627105 -150.2690645 497
217.7312176 -149.3620078 494
219.8603763 -149.0596555 493
221.5279325 -148.454951 491
223.6310272 -148.1525988 490
225.7236964 -147.8502465 489
226.8723091 -146.9431898 486
228.9337015 -146.6408376 485
231.4619093 -146.6408376 485
233.5076633 -146.3384853 484
236.0306583 -146.3384853 484
237.5678944 -145.7337809 482
239.5823716 -145.4314286 481
241.5864232 -145.1290764 480
244.088567 -145.1290764 480
246.0769802 -144.8267241 479
248.5739112 -144.8267241 479
251.5949985 -145.1290764 480
254.0971423 -145.1290764 480
256.0647043 -144.8267241 479
258.5616353 -144.8267241 479
260.5135589 -144.5243719 478
263.0052771 -144.5243719 478
264.9415623 -144.2220196 477
266.8674219 -143.9196674 476
269.3487145 -143.9196674 476
271.8300072 -143.9196674 476
274.3112998 -143.9196674 476
277.3740895 -144.2220196 477
279.8605949 -144.2220196 477
284.2364703 -143.9196674 476
286.717763 -143.9196674 476
289.8066166 -144.2220196 477
291.6803482 -143.9196674 476
197.8093392 -151.2439764 509
200.0688179 -150.9468369 508
202.3178711 -150.6496975 507
204.5564987 -150.3525581 506
206.375226 -149.7582792 504
208.1731021 -149.1640003 502
210.3700272 -148.8668608 501
212.9816399 -148.8668608 501
215.1629266 -148.5697214 500
216.8982492 -147.9754425 498
218.6127205 -147.3811636 496
220.7523048 -147.0840242 495
222.4302866 -146.4897453 493
224.0874171 -145.8954664 491
226.1852991 -145.598327 490
227.3391245 -144.7069086 487
229.4057297 -144.4097692 486
231.9391503 -144.4097692 486
233.9901171 -144.1126298 485
236.0306583 -143.8154903 484
238.0607739 -143.5183509 483
240.0804638 -143.2212114 482
242.0897282 -142.924072 481
244.088567 -142.6269325 480
247.1044415 -142.924072 481
249.0928547 -142.6269325 480
252.1191547 -142.924072 481
254.6265114 -142.924072 481
256.5992862 -142.6269325 480
259.10143 -142.6269325 480
261.0585664 -142.3297931 479
263.5554974 -142.3297931 479
265.4969954 -142.0326537 478
267.9887136 -142.0326537 478
270.4804318 -142.0326537 478
272.9721501 -142.0326537 478
275.4638683 -142.0326537 478
277.9555865 -142.0326537 478
281.0340146 -142.3297931 479
285.4307412 -142.0326537 478
287.9224594 -142.0326537 478
290.4141777 -142.0326537 478
295.3976141 -142.0326537 478
196.3062561 -149.4664413 512
198.1979626 -148.882588 510
200.8564904 -148.882588 510
203.1159692 -148.5906614 509
204.9607605 -148.0068081 507
207.1941753 -147.7148814 506
209.002477 -147.1310281 504
211.2098278 -146.8391015 503
213.831866 -146.8391015 503
216.0235783 -146.5471749 502
217.7693265 -145.9633216 500
219.0534719 -145.0875416 497
221.1982691 -144.795615 496
222.8814636 -144.2117617 494
225.0001968 -143.9198351 493
226.1852991 -143.0440551 490
227.80594 -142.4602019 488
230.3497862 -142.4602019 488
232.4163914 -142.1682752 487
234.9550248 -142.1682752 487
237.0059916 -141.8763486 486
239.0465328 -141.5844219 485
241.0766483 -141.2924953 484
243.0963383 -141.0005686 483
245.1056027 -140.708642 482
247.6181721 -140.708642 482
250.1307416 -140.708642 482
253.1674672 -141.0005686 483
255.6852495 -141.0005686 483
258.2030317 -141.0005686 483
260.7208139 -141.0005686 483
267.1632945 -140.4167154 481
269.6706511 -140.4167154 481
272.1780078 -140.4167154 481
274.6853644 -140.4167154 481
277.192721 -140.4167154 481
279.7000777 -140.4167154 481
281.6207244 -140.1247887 480
286.0278767 -139.8328621 479
288.5248077 -139.8328621 479
296.6335874 -140.1247887 480
197.4564881 -147.6576294 515
199.363833 -147.0842017 513
202.0379992 -147.0842017 513
204.3131164 -146.7974879 512
206.5778079 -146.510774 511
208.8320739 -146.2240602 510
210.6612268 -145.6506325 508
212.8894288 -145.3639187 507
215.1072051 -145.0772048 506
217.3145559 -144.790491 505
218.2048651 -143.6436356 501
219.9349748 -143.0702079 499
222.0901976 -142.7834941 498
225.4565866 -141.6366387 494
226.6469017 -140.7764972 491
228.2727554 -140.2030695 489
230.8218145 -140.2030695 489
233.3708735 -140.2030695 489
235.4374787 -139.9163556 488
237.0059916 -139.3429279 486
239.5394122 -139.3429279 486
241.0766483 -138.7695003 484
243.5996434 -138.7695003 484
245.6141205 -138.4827864 483
248.1319028 -138.4827864 483
251.1686285 -138.7695003 484
253.6916235 -138.7695003 484
256.2146185 -138.7695003 484
258.7376135 -138.7695003 484
261.2606086 -138.7695003 484
263.7836036 -138.7695003 484
266.3065986 -138.7695003 484
268.2741606 -138.4827864 483
270.231297 -138.1960726 482
272.7438664 -138.1960726 482
275.2564358 -138.1960726 482
277.7690053 -138.1960726 482
280.2815747 -138.1960726 482
282.7941441 -138.1960726 482
287.2221475 -137.9093587 481
292.2368608 -137.9093587 481
295.3569913 -138.1960726 482
197.8398987 -145.2545386 516
199.7524564 -144.6915365 514
202.4318355 -144.6915365 514
204.7121654 -144.4100355 513
206.9820698 -144.1285345 512
209.2415485 -143.8470334 511
211.4906017 -143.5655324 510
213.309329 -143.0025303 508
215.5323182 -142.7210292 507
217.7448818 -142.4395282 506
218.6404038 -141.313524 502
220.3757263 -140.7505219 500
222.0901976 -140.1875198 498
223.7838177 -139.6245178 496
225.9129765 -139.3430167 495
226.6469017 -138.2170125 491
228.7395709 -137.9355115 490
231.2938427 -137.9355115 490
233.8481145 -137.9355115 490
235.9199325 -137.6540104 489
237.4936582 -137.0910084 487
239.5394122 -136.8095073 486
241.5747406 -136.5280063 485
243.5996434 -136.2465052 484
246.1226384 -136.2465052 484
248.6456334 -136.2465052 484
251.1686285 -136.2465052 484
254.2157797 -136.5280063 485
256.7439876 -136.5280063 485
259.2721954 -136.5280063 485
261.8004032 -136.5280063 485
264.328611 -136.5280063 485
266.3065986 -136.2465052 484
268.8295936 -136.2465052 484
270.7919428 -135.9650042 483
273.3097251 -135.9650042 483
275.8275073 -135.9650042 483
277.7690053 -135.6835031 482
280.2815747 -135.6835031 482
282.7941441 -135.6835031 482
287.819283 -135.6835031 482
200.5297034 -142.564734 516
202.8256717 -142.2884458 515
205.5102635 -142.2884458 515
207.7905935 -142.0121575 514
209.6510232 -141.459581 512
211.9052892 -141.1832928 511
214.1491295 -140.9070045 510
216.3825443 -140.6307163 509
218.6055335 -140.3544281 508
219.0759424 -138.9729868 503
220.8164777 -138.4204104 501
222.5361618 -137.8678339 499
224.2349948 -137.3152574 497
225.9129765 -136.7626809 495
227.570107 -136.2101044 493
229.2063863 -135.6575279 491
231.765871 -135.6575279 491
234.3253556 -135.6575279 491
235.9199325 -135.1049514 489
237.9813249 -134.8286632 488
240.0322917 -134.5523749 487
242.0728328 -134.2760867 486
244.6062535 -134.2760867 486
246.6311562 -133.9997984 485
249.1593641 -133.9997984 485
251.6875719 -133.9997984 485
254.2157797 -133.9997984 485
257.2733566 -134.2760867 486
259.8067772 -134.2760867 486
262.3401979 -134.2760867 486
264.8736185 -134.2760867 486
266.8568189 -133.9997984 485
269.3850267 -133.9997984 485
271.3525887 -133.7235102 484
273.8755837 -133.7235102 484
276.3985787 -133.7235102 484
278.3452895 -133.447222 483
280.8630717 -133.447222 483
283.380854 -133.447222 483
201.3069503 -140.4170803 518
204.0071805 -140.4170803 518
206.3083616 -140.1460048 517
208.5991172 -139.8749294 516
210.4699725 -139.3327785 514
212.7346641 -139.0617031 513
214.5690298 -138.5195522 511
216.8076573 -138.2484767 510
219.0358593 -137.9774013 509
219.9470197 -136.8930995 505
228.4933123 -134.1823451 495
230.6068327 -133.9112696 494
232.7099275 -133.6401942 493
235.2798377 -133.6401942 493
237.3672941 -133.3691187 492
238.9566582 -132.8269678 490
247.6481919 -132.0137415 487
250.1868254 -132.0137415 487
252.7254588 -132.0137415 487
255.2640922 -132.0137415 487
257.8027256 -132.0137415 487
260.3413591 -132.0137415 487
262.8799925 -132.0137415 487
265.4186259 -132.0137415 487
267.4070391 -131.7426661 486
269.9404597 -131.7426661 486
271.9132345 -131.4715906 485
274.4414423 -131.4715906 485
277.5407216 -131.7426661 486
280.0741422 -131.7426661 486
282.6075629 -131.7426661 486
285.1409835 -131.7426661 486
287.6744041 -131.7426661 486
202.8614441 -138.7803007 522
205.5825255 -138.7803007 522
207.9045579 -138.514438 521
210.6204265 -138.514438 521
212.1078711 -137.7168501 518
214.3934139 -137.4509874 517
216.2486308 -136.9192621 515
218.0829965 -136.3875368 513
219.896511 -135.8558116 511
220.3825584 -134.5264983 506
222.1387321 -133.994773 504
227.282146 -132.3995972 498
228.954915 -131.8678719 496
231.0736481 -131.6020092 495
233.1819557 -131.3361466 494
235.7570787 -131.3361466 494
237.3672941 -130.8044213 492
248.1567098 -129.7409707 488
250.700556 -129.7409707 488
253.2444022 -129.7409707 488
256.3124047 -130.0068334 489
258.3320947 -129.7409707 488
260.8759409 -129.7409707 488
262.8799925 -129.4751081 487
265.4186259 -129.4751081 487
267.9572594 -129.4751081 487
269.9404597 -129.2092454 486
272.4738804 -129.2092454 486
275.007301 -129.2092454 486
277.5407216 -129.2092454 486
201.2905946 -136.8411688 525
204.0273145 -136.8411688 525
206.370198 -136.5805189 524
209.101705 -136.5805189 524
211.4289502 -136.3198691 523
212.9268204 -135.5379195 520
214.8081013 -135.0166199 518
216.6685311 -134.4953202 516
218.5081096 -133.9740205 514
220.3268369 -133.4527208 512
220.818097 -132.1494716 507
222.5794835 -131.6281719 505
223.8740546 -130.8462223 502
226.039703 -130.5855725 501
227.7385359 -130.0642728 499
229.8781203 -129.8036229 498
231.5404636 -129.2823233 496
234.1260122 -129.2823233 496
236.2343198 -129.0216734 495
237.8497479 -128.5003737 493
239.9319915 -128.2397239 492
242.0038095 -127.979074 491
248.6652276 -127.4577743 489
251.2142867 -127.4577743 489
253.7633457 -127.4577743 489
256.3124047 -127.4577743 489
258.8614637 -127.4577743 489
261.4105228 -127.4577743 489
263.4197871 -127.1971245 488
265.9636334 -127.1971245 488
267.9572594 -126.9364747 487
270.4958928 -126.9364747 487
272.4738804 -126.6758248 486
275.007301 -126.6758248 486
277.5407216 -126.6758248 486
202.057416 -134.6153231 527
204.4159379 -134.359886 526
207.1578705 -134.359886 526
209.5007541 -134.104449 525
211.833212 -133.8490119 524
213.3362951 -133.0827008 521
215.2227888 -132.5718267 519
217.0884313 -132.0609526 517
218.5081096 -131.2946415 514
220.7571627 -131.0392044 513
221.2536357 -129.7620192 508
223.020235 -129.2511451 506
224.3200189 -128.484834 503
226.49088 -128.2293969 502
228.6513156 -127.9739599 501
230.3397229 -127.4630858 499
232.007279 -126.9522117 497
234.1260122 -126.6967746 496
236.2343198 -126.4413376 495
238.3322018 -126.1859005 494
240.4196581 -125.9304635 493
242.4966889 -125.6750265 492
244.5632941 -125.4195894 491
246.6194737 -125.1641524 490
249.1737455 -125.1641524 490
251.7280173 -125.1641524 490
254.2822891 -125.1641524 490
256.836561 -125.1641524 490
259.3908328 -125.1641524 490
261.4105228 -124.9087153 489
263.9595818 -124.9087153 489
266.5086408 -124.9087153 489
268.5074796 -124.6532783 488
270.4958928 -124.3978412 487
273.0345262 -124.3978412 487
275.007301 -124.1424042 486
278.1117931 -124.3978412 487
281.2267107 -124.6532783 488
283.1890599 -124.3978412 487
202.4408266 -132.1184019 528
204.8045614 -131.8681776 527
207.5517068 -131.8681776 527
209.8998031 -131.6179534 526
212.2374739 -131.3677291 525
214.1552444 -130.8672807 523
215.6374763 -130.1166079 520
217.5083316 -129.6161594 518
218.9332226 -128.8654867 515
220.7571627 -128.3650382 513
221.6891743 -127.3641412 509
223.020235 -126.6134685 506
224.7659831 -126.11302 504
226.9420571 -125.8627957 503
229.1077054 -125.6125715 502
231.2629282 -125.3623472 501
233.4077254 -125.112123 500
235.542097 -124.8618988 499
237.6660429 -124.6116745 498
239.7795633 -124.3614503 497
241.3949914 -123.8610018 495
243.9753273 -123.8610018 495
246.0575708 -123.6107775 494
248.1293888 -123.3605533 493
250.1907812 -123.110329 492
252.7554786 -123.110329 492
254.8012326 -122.8601048 491
257.8848735 -123.110329 492
259.9202018 -122.8601048 491
261.9451046 -122.6098805 490
264.4993764 -122.6098805 490
267.0536483 -122.6098805 490
269.0576998 -122.3596563 489
271.6067589 -122.3596563 489
274.1558179 -122.3596563 489
276.1390183 -122.109432 488
279.2539359 -122.3596563 489
284.352054 -122.3596563 489
203.5910586 -130.101078 531
205.9704317 -129.8560666 530
208.3393793 -129.6110551 529
210.6979013 -129.3660437 528
213.0459976 -129.1210322 527
214.1552444 -128.1409864 523
216.0521637 -127.6509635 521
217.9282318 -127.1609407 519
219.7834487 -126.6709178 517
221.1874886 -125.9358834 514
222.124713 -124.9558376 510
223.9017379 -124.4658147 508
225.6579116 -123.9757919 506
227.8444112 -123.7307804 505
230.0204852 -123.485769 504
232.1861335 -123.2407575 503
238.143284 -122.2607117 499
240.2620172 -122.0157003 498
242.3703247 -121.7706888 497
244.4682067 -121.5256774 496
246.5556631 -121.2806659 495
248.6326939 -121.0356545 494
250.699299 -120.7906431 493
253.2692093 -120.7906431 493
255.8391195 -120.7906431 493
258.4090297 -120.7906431 493
259.9202018 -120.3006202 491
262.4796865 -120.3006202 491
265.0391711 -120.3006202 491
267.5986557 -120.3006202 491
269.6079201 -120.0556087 490
272.1621919 -120.0556087 490
274.1558179 -119.8105973 489
276.7048769 -119.8105973 489
279.8250074 -120.0556087 490
282.9555635 -120.3006202 491
284.933551 -120.0556087 490
286.901113 -119.8105973 489
203.9744692 -127.57288 532
206.3590552 -127.3330814 531
208.7332156 -127.0932828 530
211.0969503 -126.8534841 529
212.6417358 -126.1340882 526
214.1552444 -125.4146922 523
216.0521637 -124.9350949 521
218.3481321 -124.6952963 520
219.7834487 -123.9759003 517
221.1874886 -123.2565044 514
222.124713 -122.2973098 510
223.9017379 -121.8177125 508
226.1038759 -121.5779139 507
228.2955882 -121.3381152 506
230.476875 -121.0983166 505
243.345658 -119.6595247 499
245.4539656 -119.4197261 498
247.5518476 -119.1799274 497
253.7829399 -118.4605315 494
255.8391195 -118.2207328 493
258.4090297 -118.2207328 493
260.9789399 -118.2207328 493
263.0142683 -117.9809342 492
265.5789657 -117.9809342 492
268.1436632 -117.9809342 492
270.1581403 -117.7411355 491
272.717625 -117.7411355 491
275.2771096 -117.7411355 491
277.8365942 -117.7411355 491
280.3960788 -117.7411355 491
285.5150481 -117.7411355 491
286.901113 -117.2615382 489
204.3578799 -125.0342565 533
206.7476787 -124.7996706 532
209.1270518 -124.5650848 531
211.4959994 -124.3304989 530
213.4502595 -123.8613272 528
214.1552444 -122.688398 523
216.0521637 -122.2192263 521
217.9282318 -121.7500546 519
219.7834487 -121.2808829 517
224.3424894 -119.4041962 509
226.5498401 -119.1696103 508
228.7467653 -118.9350245 507
230.9332649 -118.7004386 506
233.5709415 -118.7004386 506
240.0522482 -117.9966811 503
241.7093787 -117.5275094 501
243.8333247 -117.2929235 500
245.946845 -117.0583377 499
249.0461243 -117.2929235 500
256.8770064 -116.1199943 495
259.4573422 -116.1199943 495
260.9789399 -115.6508226 493
263.5488502 -115.6508226 493
266.1187604 -115.6508226 493
268.6886706 -115.6508226 493
270.7083606 -115.4162368 492
273.273058 -115.4162368 492
275.8377554 -115.4162368 492
278.4024529 -115.4162368 492
280.9671503 -115.4162368 492
284.1081319 -115.6508226 493
286.0965451 -115.4162368 492
287.4878229 -114.9470651 490
204.7412906 -122.4852073 534
207.1363021 -122.2558343 533
209.1270518 -121.7970882 531
211.4959994 -121.5677151 530
213.4502595 -121.108969 528
214.1552444 -119.9621038 523
216.0521637 -119.5033577 521
217.5083316 -118.8152386 518
219.3583357 -118.3564925 516
221.1874886 -117.8977464 514
222.5602516 -117.2096272 511
224.7832408 -116.9802542 510
226.9958044 -116.7508811 509
229.1979423 -116.5215081 508
231.3896547 -116.292135 507
234.0325441 -116.292135 507
236.2086181 -116.062762 506
238.8462947 -116.062762 506
241.0067303 -115.8333889 505
242.6742864 -115.3746429 503
245.2963246 -115.3746429 503
247.4254834 -115.1452698 502
250.0423088 -115.1452698 502
257.9148933 -113.9984046 497
259.9814984 -113.7690315 496
262.037678 -113.5396585 495
264.6180138 -113.5396585 495
267.1983497 -113.5396585 495
269.7786855 -113.5396585 495
272.3590213 -113.5396585 495
274.3839241 -113.3102854 494
277.519693 -113.5396585 495
279.5341701 -113.3102854 494
282.1092932 -113.3102854 494
284.1081319 -113.0809124 493
286.6780422 -113.0809124 493
205.1247012 -119.9257326 535
207.1363021 -119.4774121 533
209.5208881 -119.2532518 532
211.4959994 -118.8049313 530
213.4502595 -118.3566108 528
213.7457698 -117.0116493 522
215.6374763 -116.5633288 520
217.5083316 -116.1150083 518
219.7834487 -115.8908481 517
221.6178144 -115.4425276 515
222.9957903 -114.7700469 512
225.2239923 -114.5458866 511
227.4417686 -114.3217264 510
229.6491194 -114.0975661 509
231.8460446 -113.8734059 508
234.0325441 -113.6492456 507
236.6754335 -113.6492456 507
238.8462947 -113.4250854 506
241.0067303 -113.2009251 505
243.1567403 -112.9767649 504
245.2963246 -112.7526046 503
247.9183628 -112.7526046 503
250.5404011 -112.7526046 503
252.6591342 -112.5284444 502
256.3515931 -111.8559636 499
261.0298109 -111.6318034 498
263.0964161 -111.4076431 497
265.6871775 -111.4076431 497
268.277939 -111.4076431 497
270.8687004 -111.4076431 497
273.4594618 -111.4076431 497
275.4947902 -111.1834829 496
277.519693 -110.9593226 495
280.1000288 -110.9593226 495
282.6803646 -110.9593226 495
286.6780422 -110.5110022 493
205.1247012 -117.1368847 535
206.7476787 -116.4800424 532
209.1270518 -116.261095 531
211.4959994 -116.0421475 530
213.0459976 -115.3853052 527
213.7457698 -114.2905679 522
215.6374763 -113.852673 520
217.9282318 -113.6337256 519
219.7834487 -113.1958307 517
221.6178144 -112.7579358 515
222.9957903 -112.1010934 512
225.2239923 -111.882146 511
227.8877329 -111.882146 511
229.6491194 -111.4442511 509
231.8460446 -111.2253036 508
234.0325441 -111.0063562 507
236.6754335 -111.0063562 507
238.8462947 -110.7874088 506
241.0067303 -110.5684613 505
243.1567403 -110.3495139 504
245.7839913 -110.3495139 504
248.4112423 -110.3495139 504
250.5404011 -110.1305664 503
252.6591342 -109.911619 502
254.7674418 -109.6926715 501
256.8653238 -109.4737241 500
259.4717236 -109.4737241 500
261.5539672 -109.2547766 499
264.1551542 -109.2547766 499
266.2217594 -109.0358292 498
268.8177336 -109.0358292 498
271.9587153 -109.2547766 499
274.009682 -109.0358292 498
276.0502232 -108.8168817 497
278.6409847 -108.8168817 497
280.6658874 -108.5979343 496
282.6803646 -108.3789868 495
287.2595392 -108.1600394 494
205.5081119 -114.5617716 536
206.7476787 -113.706833 532
209.1270518 -113.4930983 531
211.0969503 -113.065629 529
213.0459976 -112.6381598 527
213.7457698 -111.5694865 522
215.6374763 -111.1420172 520
217.9282318 -110.9282826 519
219.7834487 -110.5008133 517
222.0481403 -110.2870786 516
223.4313289 -109.6458747 513
225.6647437 -109.43214 512
227.8877329 -109.2184054 511
230.1002964 -109.0046707 510
231.8460446 -108.5772014 508
234.4941468 -108.5772014 508
236.6754335 -108.3634668 507
238.8462947 -108.1497321 506
241.4839713 -108.1497321 506
243.6391941 -107.9359975 505
245.7839913 -107.7222628 504
248.4112423 -107.7222628 504
251.0384933 -107.7222628 504
253.1624393 -107.5085282 503
255.2759597 -107.2947935 502
257.3790544 -107.0810589 501
259.9906671 -107.0810589 501
262.6022797 -107.0810589 501
264.6845233 -106.8673242 500
266.7563412 -106.6535896 499
269.3575283 -106.6535896 499
271.9587153 -106.6535896 499
274.5599023 -106.6535896 499
276.6056563 -106.4398549 498
278.6409847 -106.2261203 497
281.2317461 -106.2261203 497
283.2514361 -106.0123856 496
287.2595392 -105.5849164 494
205.5081119 -111.767711 536
207.1363021 -111.1421454 533
209.1270518 -110.7251017 531
211.4959994 -110.5165799 530
213.0459976 -109.8910143 527
213.7457698 -108.8484051 522
216.0521637 -108.6398832 521
217.9282318 -108.2228395 519
220.2085618 -108.0143177 518
222.4784661 -107.8057959 517
223.8668676 -107.1802303 514
226.1054952 -106.9717085 513
228.7796614 -106.9717085 513
231.0026505 -106.7631866 512
232.7588243 -106.3461429 510
235.4173521 -106.3461429 510
237.6090644 -106.1376211 509
239.7903512 -105.9290992 508
241.9612124 -105.7205774 507
244.121648 -105.5120555 506
246.7593246 -105.5120555 506
248.9041217 -105.3035337 505
251.5365856 -105.3035337 505
253.6657443 -105.0950118 504
255.7844775 -104.88649 503
258.4065157 -104.88649 503
261.028554 -104.88649 503
263.6505922 -104.88649 503
266.2726304 -104.88649 503
268.8946686 -104.88649 503
270.9769122 -104.6779681 502
273.0487302 -104.4694463 501
275.6603428 -104.4694463 501
277.7165224 -104.2609244 500
279.7622763 -104.0524026 499
281.7976047 -103.8438807 498
283.8225075 -103.6353589 497
286.4132689 -103.6353589 497
288.4225333 -103.426837 496
290.4213721 -103.2183152 495
211.4959994 -107.7537961 530
213.4502595 -107.347178 528
214.9741937 -106.7372508 525
216.8815386 -106.3306327 523
219.1879326 -106.1273237 522
221.4839009 -105.9240146 521
223.3391178 -105.5173965 519
225.6090222 -105.3140875 518
227.868501 -105.1107784 517
229.6715899 -104.7041603 515
231.9050046 -104.5008513 514
233.671604 -104.0942332 512
235.8789547 -103.8909241 511
238.5426953 -103.8909241 511
240.7344077 -103.6876151 510
242.4384534 -103.280997 508
244.6041018 -103.0776879 507
246.7593246 -102.8743789 506
249.3970012 -102.8743789 506
252.0346778 -102.8743789 506
254.1690494 -102.6710698 505
256.2929954 -102.4677608 504
258.9202464 -102.4677608 504
262.0664408 -102.6710698 505
264.1747484 -102.4677608 504
266.8019994 -102.4677608 504
268.8946686 -102.2644517 503
271.5167068 -102.2644517 503
274.1387451 -102.2644517 503
275.6603428 -101.8578336 501
278.2719554 -101.8578336 501
280.3229222 -101.6545246 500
282.3634634 -101.4512155 499
284.9646504 -101.4512155 499
289.0040303 -101.0445975 497
209.1270518 -105.1891085 531
211.4959994 -104.9910123 530
213.8545213 -104.792916 529
215.3836684 -104.1986273 526
217.7109135 -104.000531 525
220.0277331 -103.8024348 524
221.909014 -103.4062423 522
224.1997696 -103.208146 521
226.0445609 -102.8119535 519
228.3092524 -102.6138573 518
230.5635184 -102.415761 517
232.8073588 -102.2176648 516
234.5843837 -101.8214723 514
236.80216 -101.623376 513
239.0095108 -101.4252798 512
241.206436 -101.2271835 511
242.9156945 -100.830991 509
245.0865557 -100.6328948 508
247.2469912 -100.4347985 507
249.8898806 -100.4347985 507
252.0346778 -100.2367023 506
254.6723544 -100.2367023 506
256.8015132 -100.038606 505
259.9477077 -100.2367023 506
262.5853843 -100.2367023 506
264.6989047 -100.038606 505
267.3313685 -100.038606 505
269.9638323 -100.038606 505
272.0565015 -99.84050978 504
274.1387451 -99.64241353 503
276.7607833 -99.64241353 503
278.2719554 -99.24622103 501
280.883568 -99.24622103 501
282.929322 -99.04812478 500
284.9646504 -98.85002853 499
211.8950484 -102.4211119 531
213.8545213 -102.035345 529
216.2026177 -101.8424616 528
218.5402884 -101.6495781 527
220.8675336 -101.4566947 526
222.7592401 -101.0709278 524
224.6300954 -100.6851609 522
226.9156382 -100.4922774 521
229.1907553 -100.299394 520
231.4554469 -100.1065105 519
233.7097129 -99.91362705 518
235.4971634 -99.52786015 516
237.2637627 -99.14209325 514
239.4763262 -98.9492098 513
241.6784642 -98.75632635 512
242.9156945 -98.177676 509
245.0865557 -97.98479255 508
247.7346579 -97.98479255 508
250.3827601 -97.98479255 508
252.5327701 -97.7919091 507
254.6723544 -97.59902565 506
257.3100311 -97.59902565 506
259.9477077 -97.59902565 506
262.5853843 -97.59902565 506
265.2230609 -97.59902565 506
267.8607375 -97.59902565 506
269.9638323 -97.4061422 505
272.5962961 -97.4061422 505
274.6837525 -97.21325875 504
276.7607833 -97.0203753 503
279.3828215 -97.0203753 503
281.4442139 -96.82749185 502
283.4951806 -96.6346084 501
286.1067933 -96.6346084 501
212.2940975 -99.84078594 532
214.663045 -99.65311529 531
217.021567 -99.46544464 530
219.3696633 -99.27777399 529
221.2874338 -98.90243269 527
223.6094662 -98.71476204 526
225.4907471 -98.33942074 524
227.7867155 -98.15175009 523
230.0722582 -97.96407944 522
232.3473754 -97.77640879 521
234.612067 -97.58873814 520
236.4099431 -97.21339684 518
239.1101733 -97.21339684 518
240.8767726 -96.83805554 516
242.6225207 -96.46271424 514
244.3474176 -96.08737294 512
246.5339172 -95.89970229 511
248.7099912 -95.71203164 510
251.368519 -95.71203164 510
253.5289546 -95.52436099 509
255.6789645 -95.33669034 508
257.8185489 -95.14901968 507
260.975169 -95.33669034 508
263.6232712 -95.33669034 508
265.2230609 -94.96134903 506
267.8607375 -94.96134903 506
270.4984142 -94.96134903 506
273.1360908 -94.96134903 506
275.7737674 -94.96134903 506
277.8612238 -94.77367838 505
279.9382545 -94.58600773 504
282.5655056 -94.58600773 504
284.6268979 -94.39833708 503
214.6883918 -98.16232363 538
216.6843543 -97.79740793 536
219.0689403 -97.61495008 535
221.0284132 -97.25003438 533
222.9670349 -96.88511868 531
225.3099184 -96.70266083 530
