0,0,0,0,0,0,0,0,0,0,0,0,0,0,0,0,0,0,0,0,0,0,0,0,0,0,291,290,290,290,290,290,289,289,289,289,288,288,288,288,288,289,289,290,291,292,293,293,293,293,294,294,294,294,294,294,294,295,295,295,296,296,296,296,296,296,479,479,479,479,478,478,479,479,479,479,479,479,479,479,479,479,479,479,480,481,480,480,479,479,479,478,477,475,473,472,0,0,0,470,471,471,0,472,472,472,471,468,0,466,466,468,472,474,476,480,482,483,488,491,0,0,508,511,511,511,511,509,508,506,506,505,506,506,504,504,503,502,501,501,498,497,495,493,0,484,483,480,479,478,477,475,473,472,470,462,460,458,457,456,455,455,0,0,0,0,0,0,0,0,0,0,0,0,0,0,0,0,0,0,0,0,0,0,0,0,0,0,0,0,0,0,0,0,0,0,0,0,0,0,0,0,0,0,0,0,0,0,0,0,0,0,0,0,0,0,0,0,0,0,0,0,0,0,0,0,0,0,0,0,0,0,0,0,0,0,0,0,0,0,0,0,0,0,0,0,0,0,0,0,0,0,0,0,0,0,0,0,0,0,0,0,0,0,0,0,0,0,0,0,0,0,0,0,0,0,0,0,0,0,0,0,0,0,0,0,0,0,0,0,0,515,515,516,517,517,518,519,520,521,522,522,522,521,520,519,518,517,516,514,514,0,0,0,0,0,0,0,0,0
0,0,0,0,0,0,0,0,0,0,0,0,0,0,0,0,0,0,0,0,0,0,0,0,0,0,291,290,290,290,290,290,289,289,289,289,288,288,288,288,288,288,289,289,291,291,292,293,293,293,294,294,294,294,294,295,295,295,296,296,296,296,296,297,297,479,479,478,478,478,477,477,478,478,478,479,479,479,479,479,479,479,479,479,480,480,480,479,479,479,479,478,476,476,475,475,0,0,0,0,0,467,467,467,466,466,467,466,465,465,466,467,471,474,476,481,482,484,488,492,0,500,504,507,510,511,510,509,508,507,506,506,506,506,505,504,503,502,501,500,497,496,494,492,0,484,483,481,481,480,479,478,476,473,472,466,463,461,460,458,457,0,0,0,0,0,0,0,0,0,0,0,0,0,0,0,0,0,0,0,0,0,0,0,0,0,0,0,0,0,0,0,0,0,0,0,0,0,0,0,0,0,0,0,0,0,0,0,0,0,0,0,0,0,0,0,0,0,0,0,0,0,0,0,0,0,0,0,0,0,0,0,0,0,0,0,0,0,0,0,0,0,0,0,0,0,0,0,0,0,0,0,0,0,0,0,0,0,0,0,0,0,0,0,0,0,0,0,0,0,0,0,0,0,0,0,0,0,0,0,0,0,0,0,0,0,0,0,0,0,0,516,517,517,517,518,519,520,521,522,522,522,521,520,519,518,518,517,515,514,514,0,0,0,0,0,0,0,0,0
0,0,0,0,0,0,0,0,0,0,0,0,0,0,0,0,0,0,0,0,0,0,0,0,0,0,291,0,290,290,290,289,289,289,289,289,288,288,0,288,288,288,289,0,0,0,293,293,294,294,294,294,295,295,295,295,295,295,296,296,296,296,297,297,297,479,478,478,477,477,477,476,477,477,478,478,478,478,478,479,479,479,479,479,480,480,479,479,478,478,478,477,476,476,475,475,470,466,0,0,456,455,454,460,454,454,460,0,458,460,462,465,472,475,478,482,484,486,488,491,493,495,501,0,505,508,509,508,508,507,507,506,506,506,505,504,503,502,501,500,497,495,494,491,489,485,484,482,481,481,479,479,477,475,473,468,466,463,462,460,458,457,0,0,0,0,0,0,0,0,0,0,0,0,0,0,0,0,0,0,0,0,0,0,0,0,0,0,0,0,0,0,0,0,0,0,0,344,343,343,342,341,340,341,340,338,0,0,0,0,0,0,0,0,0,0,0,0,0,0,0,0,0,0,0,0,0,0,0,0,0,0,0,0,0,0,0,0,0,0,0,0,0,0,0,0,0,0,0,0,0,0,0,0,0,0,0,0,0,0,0,0,0,0,0,0,0,0,0,0,0,0,0,0,0,0,0,0,0,0,0,0,0,0,0,0,0,0,0,0,516,516,517,517,518,518,520,521,521,521,521,520,520,519,518,517,516,516,514,514,513,513,512,0,0,0,0,0,0,0
0,0,0,0,0,0,0,0,0,0,0,0,0,0,0,0,0,0,0,0,0,0,0,0,0,0,291,291,290,290,290,290,289,289,289,289,288,0,0,0,288,288,0,0,0,0,293,293,294,294,294,295,295,295,295,295,296,296,296,296,297,297,297,297,297,478,478,477,477,476,476,475,475,476,476,476,476,477,477,477,478,478,478,478,478,478,477,476,476,475,475,473,472,472,471,469,464,0,455,451,449,447,447,448,448,449,0,454,455,457,461,465,472,476,480,486,487,488,489,491,492,494,499,501,502,505,506,507,507,506,506,505,505,505,503,503,501,501,499,499,495,494,492,490,488,485,484,482,481,481,480,479,478,476,472,470,467,465,464,462,459,0,0,0,0,0,0,0,0,0,0,0,0,0,0,0,0,0,0,0,0,0,0,0,0,0,0,0,0,0,0,0,0,0,0,0,345,344,344,344,343,342,341,341,340,339,338,338,0,0,0,0,0,0,0,0,0,0,0,0,0,0,0,0,0,0,0,0,0,0,0,0,0,0,0,0,0,0,0,0,0,0,0,0,0,0,0,0,0,0,0,0,0,0,0,0,0,0,0,0,0,0,0,0,0,0,0,0,0,0,0,0,0,0,0,0,0,0,0,0,0,0,0,0,0,0,0,0,0,516,516,516,517,518,518,518,519,520,521,520,520,520,519,519,518,517,516,515,514,514,513,512,511,0,0,0,0,0,0,0
0,0,0,0,0,0,0,0,0,0,0,0,0,0,0,0,0,0,0,0,0,0,0,0,0,0,0,0,0,0,290,290,290,289,289,289,288,288,0,0,287,288,289,290,291,292,293,294,294,294,295,295,295,296,296,296,296,296,296,297,297,297,297,297,297,478,477,476,475,475,475,474,474,474,475,475,475,475,476,476,477,477,477,477,477,477,476,475,475,474,474,471,469,469,468,465,460,455,451,0,0,444,443,443,444,0,446,450,453,454,461,465,0,478,482,487,488,489,490,491,491,493,496,498,499,502,503,504,504,503,503,503,503,503,502,501,500,499,498,497,495,492,491,489,487,484,483,482,481,481,481,480,479,478,474,472,469,467,465,462,0,0,0,0,0,0,0,0,0,0,0,0,0,0,0,0,0,0,0,0,0,0,0,0,0,0,0,0,0,0,0,0,0,0,0,345,345,345,344,344,344,0,0,0,0,340,339,339,338,0,0,338,338,0,0,0,0,0,0,0,0,0,0,0,0,0,0,0,0,0,0,0,0,0,0,0,0,0,0,0,0,0,0,0,0,0,0,0,0,0,0,0,0,0,0,0,0,0,0,0,0,0,0,0,0,0,0,0,0,0,0,0,0,0,0,0,0,0,0,0,0,0,0,0,0,0,0,0,0,0,517,517,518,518,519,519,520,520,520,520,519,519,519,518,517,516,516,515,514,513,513,512,511,0,0,0,0,0,0,0
0,0,0,0,0,0,0,0,0,0,0,0,0,0,0,0,0,0,0,0,0,0,0,0,0,0,0,0,0,0,0,0,0,0,0,0,0,0,0,0,0,0,0,0,0,293,293,294,294,295,295,296,296,296,296,297,297,297,297,297,297,298,298,298,298,298,477,476,475,474,473,473,473,473,474,474,474,475,475,475,476,476,476,476,476,476,476,475,474,474,474,471,469,469,467,465,462,454,449,446,0,0,441,440,441,442,443,449,451,454,460,466,0,479,482,488,489,490,490,491,492,492,493,494,495,498,499,499,499,499,499,499,500,499,499,498,496,495,494,493,492,489,487,486,485,483,482,481,481,482,481,482,481,481,478,477,474,0,0,467,0,0,0,0,0,0,0,0,0,0,0,0,0,0,0,0,0,371,368,368,0,0,0,0,0,0,0,0,0,0,0,0,0,0,346,345,345,345,345,344,344,343,342,0,0,340,340,339,339,338,0,0,0,0,0,0,0,0,346,346,346,0,0,0,0,0,0,0,0,0,0,0,0,0,0,0,0,0,0,0,0,0,0,0,0,0,0,0,0,0,0,0,0,0,0,0,0,0,0,0,0,0,0,0,0,0,0,0,0,0,0,0,0,0,0,0,0,0,0,0,0,0,0,0,0,0,0,0,0,0,517,517,518,518,519,519,519,520,520,519,519,519,518,518,517,516,515,515,514,513,512,512,511,510,0,0,0,0,0,0
0,0,0,0,0,0,0,0,0,0,0,0,0,0,0,0,0,0,0,0,0,0,0,0,0,0,0,0,0,0,0,0,0,0,0,0,0,0,0,0,0,0,0,0,0,0,0,295,295,295,296,296,296,296,297,297,297,297,297,298,298,298,298,299,299,299,476,475,474,473,473,473,472,472,473,473,473,473,474,474,475,475,475,475,476,476,475,475,474,474,473,471,469,468,467,465,461,452,448,443,441,440,439,439,439,440,442,450,451,453,461,466,477,480,483,487,488,489,489,490,491,491,492,493,494,495,497,496,496,497,497,497,498,498,497,497,495,493,492,491,490,487,486,485,484,484,482,482,481,481,482,482,482,482,480,479,478,0,0,0,0,0,0,0,0,0,0,0,0,0,0,0,0,0,0,0,0,369,368,367,367,0,0,0,0,0,0,0,0,0,0,0,0,0,346,346,346,346,345,345,345,345,344,344,343,341,341,340,340,340,339,340,340,341,0,343,344,345,345,346,346,346,346,0,0,0,0,0,0,0,0,0,0,0,0,0,0,0,0,0,0,0,0,0,0,0,0,0,0,0,0,0,0,0,0,0,0,0,0,0,0,0,0,0,0,0,0,0,0,0,0,0,0,0,0,0,0,0,0,0,0,0,0,0,0,0,0,0,0,0,0,518,518,519,519,519,519,519,519,519,518,518,518,518,516,516,515,515,514,513,512,511,511,509,509,0,0,0,505,505
0,0,0,0,0,0,0,0,0,0,0,0,0,0,0,0,0,0,0,0,0,0,0,0,0,0,0,0,0,0,0,0,0,0,0,0,0,0,0,0,0,0,0,0,0,0,0,0,295,295,295,296,296,297,297,297,297,298,298,298,298,299,299,299,299,299,0,0,0,0,472,472,472,472,472,473,473,473,473,473,473,475,475,474,476,476,476,476,476,475,475,471,469,467,466,463,459,455,447,442,440,438,438,437,439,440,442,450,455,458,467,0,480,482,485,488,489,489,489,489,490,490,490,491,492,493,494,494,495,495,496,496,497,497,496,495,495,493,491,491,490,487,486,485,484,484,482,482,482,482,483,484,484,484,0,0,0,0,0,0,0,0,0,0,0,0,0,0,0,0,0,0,0,0,0,0,369,368,367,367,367,367,367,367,0,0,0,0,0,0,0,0,0,347,347,347,347,347,347,347,347,346,346,345,344,0,342,342,342,341,341,341,341,0,342,0,0,0,0,0,0,0,347,347,0,0,0,0,0,0,0,0,0,0,0,0,0,0,0,0,0,0,0,0,0,0,0,0,0,0,0,0,0,0,0,0,0,0,0,0,0,0,0,0,0,0,0,0,0,0,0,0,0,0,0,0,466,466,465,465,462,461,460,460,458,458,0,0,0,0,0,0,0,0,0,519,0,0,0,0,518,518,518,517,516,516,515,515,514,513,512,511,511,509,509,0,0,506,505,506
0,0,0,0,0,0,0,0,0,0,0,0,0,0,0,0,0,0,0,0,0,0,0,0,0,0,0,0,0,0,0,0,0,0,0,0,0,0,0,0,0,0,0,0,0,0,0,0,0,296,296,297,297,297,298,298,298,298,298,299,299,299,299,299,299,300,0,0,0,0,471,472,471,472,472,472,472,473,472,473,473,474,474,475,478,479,479,479,479,478,477,472,469,466,463,460,0,0,0,439,437,436,437,436,439,441,442,454,460,0,471,475,482,484,486,488,489,489,489,489,489,489,489,490,491,493,494,494,494,495,495,495,496,495,495,0,495,493,491,490,489,487,486,485,484,483,482,482,482,483,483,486,486,486,486,486,0,0,0,0,0,0,0,0,0,0,0,0,0,0,0,0,0,0,0,0,368,367,367,367,366,366,366,366,0,0,0,0,0,0,0,0,0,0,0,348,348,348,348,347,347,347,346,346,344,344,343,343,342,341,341,341,341,341,341,342,343,344,0,0,0,0,348,348,0,0,0,0,0,0,0,0,0,0,0,0,0,0,0,0,0,0,0,0,0,0,0,0,0,0,0,0,0,0,0,0,0,0,0,0,0,0,0,0,0,0,0,0,0,0,0,0,0,0,0,0,467,466,466,466,464,463,462,461,460,459,458,0,0,0,0,0,0,0,0,0,0,0,0,0,0,0,0,0,0,516,516,515,514,513,512,511,511,509,508,508,508,506,505,505
0,0,0,0,0,0,0,0,0,0,0,0,0,0,0,0,0,0,0,0,0,0,0,0,0,0,0,0,0,0,0,0,0,0,0,0,0,0,0,0,0,0,0,0,0,0,0,0,0,0,0,0,0,298,298,299,299,299,299,299,299,300,300,300,300,300,301,0,471,471,471,471,471,472,472,472,472,472,473,473,472,473,474,475,479,481,481,481,481,480,478,475,467,465,462,459,454,450,0,0,0,433,433,434,0,0,0,459,0,471,475,478,484,486,487,490,490,490,491,491,490,491,491,491,493,494,494,494,494,494,494,494,495,496,496,495,494,493,491,490,489,487,486,485,484,483,482,481,0,0,0,0,0,0,486,0,0,0,0,0,0,0,0,0,0,0,0,0,0,0,0,0,0,0,0,0,368,367,367,366,366,366,366,366,0,0,0,0,0,0,0,0,0,0,349,349,348,348,348,348,347,347,346,346,345,344,344,343,343,342,341,341,0,340,341,341,342,0,0,0,0,0,349,349,0,0,0,0,0,0,0,0,0,0,0,0,0,0,0,0,0,0,0,0,0,0,0,0,0,0,0,0,0,0,0,0,0,0,0,0,0,0,0,0,0,0,0,0,0,0,0,0,0,0,0,0,467,466,466,465,464,463,462,462,461,459,458,457,0,0,0,0,0,0,0,0,0,0,0,0,0,0,0,0,0,0,0,0,0,0,512,511,511,509,508,508,507,506,505,505
0,0,0,0,0,0,0,0,0,0,0,0,0,0,0,0,0,0,0,0,0,0,0,0,0,0,0,0,0,0,0,0,0,0,0,0,0,0,0,0,0,0,0,0,0,0,0,0,0,296,297,298,298,298,299,299,299,299,300,300,300,300,300,300,300,301,301,0,469,470,470,470,471,471,471,472,472,472,473,472,472,473,474,475,480,482,483,482,482,481,480,473,469,467,0,460,455,0,0,0,0,0,0,0,471,459,0,485,476,478,479,489,487,489,491,491,491,491,491,491,494,495,497,498,500,501,501,499,498,497,497,498,499,501,501,501,499,498,496,493,492,488,487,485,0,0,482,482,482,483,485,486,486,486,0,0,0,0,0,0,0,0,0,0,0,0,0,0,0,0,0,0,0,0,0,0,0,0,367,366,366,366,366,365,0,0,0,0,0,0,0,0,0,0,0,350,349,348,348,348,347,347,347,346,345,345,345,344,343,342,342,341,341,341,341,341,343,344,348,350,0,350,350,351,0,0,0,0,0,0,0,0,0,0,0,0,0,0,0,0,0,0,0,0,0,0,0,0,0,0,0,0,0,0,0,0,0,0,0,0,0,0,0,0,0,0,0,0,0,0,0,0,0,0,0,0,467,0,466,466,464,463,463,462,461,460,459,458,458,0,0,0,0,0,0,0,0,0,0,0,0,0,0,0,0,0,0,0,0,0,0,0,0,509,508,508,507,506,505,505
0,0,0,0,0,0,0,0,0,0,0,0,0,0,0,0,0,0,0,0,0,0,0,0,0,0,0,0,0,0,0,0,0,0,0,0,0,0,0,0,0,0,0,0,0,0,0,0,0,0,0,0,0,299,299,299,300,300,300,300,300,300,301,301,301,301,301,302,0,0,470,471,471,471,472,472,472,473,473,473,473,475,475,480,482,483,484,485,484,484,483,476,472,0,0,438,434,430,425,423,422,422,0,0,483,488,488,489,0,491,0,493,493,494,495,495,495,494,495,496,497,498,501,503,504,506,504,502,501,501,501,502,503,505,506,505,0,0,0,499,496,493,0,0,0,0,483,483,483,484,487,487,487,487,0,0,0,0,0,0,0,0,0,0,0,0,0,0,0,0,0,0,0,0,0,0,0,0,366,366,365,365,364,364,363,363,361,359,0,358,356,0,0,353,351,350,350,350,349,349,348,348,348,347,347,346,346,345,345,344,343,342,0,342,342,343,344,347,349,350,352,352,352,352,352,0,0,0,0,0,0,0,0,0,0,0,0,0,0,0,0,0,0,0,0,0,0,0,0,0,0,0,0,0,0,0,0,0,0,0,0,0,0,0,0,0,0,0,0,0,0,0,0,0,0,0,0,0,466,466,465,464,464,463,462,462,461,460,0,0,0,0,0,0,0,0,0,0,0,0,0,0,0,0,0,0,0,0,0,0,0,0,0,0,0,0,0,0,0,0
0,0,0,0,0,0,0,0,0,0,0,0,0,0,0,0,0,0,0,0,0,0,0,0,0,0,0,0,0,0,0,0,0,0,0,0,0,0,0,0,0,0,0,0,0,0,0,0,0,0,299,300,299,299,300,300,300,300,300,300,301,301,301,301,301,302,302,302,0,0,0,0,472,472,472,472,472,473,473,473,473,0,0,0,0,484,484,484,483,0,482,0,0,0,0,437,429,421,420,420,420,420,419,0,0,492,493,0,496,0,497,497,497,497,498,498,497,497,499,500,502,504,506,508,509,509,508,506,505,505,505,506,507,509,510,508,508,508,0,0,0,0,0,0,0,0,484,484,484,484,484,0,486,485,487,0,0,0,0,0,0,0,0,0,0,0,0,0,0,0,0,0,0,0,0,0,369,367,366,365,365,364,364,364,363,361,361,359,359,358,357,356,355,354,353,351,351,350,350,350,349,349,348,348,348,348,347,347,346,345,344,343,0,343,344,345,345,349,351,352,353,353,353,353,353,0,0,0,0,0,0,0,0,0,0,0,0,0,0,0,0,0,0,0,0,0,0,0,0,0,0,0,0,0,0,0,0,0,0,0,0,0,0,0,0,0,0,0,0,0,0,0,0,0,0,0,0,0,0,0,0,466,0,465,0,464,464,464,0,0,0,0,0,0,0,0,0,0,0,0,0,0,0,0,0,0,0,0,0,0,0,0,0,0,0,0,0,0,0,503
0,0,0,0,0,0,0,0,0,0,0,0,0,0,0,0,0,0,0,0,0,0,0,0,0,0,0,0,0,0,0,0,0,0,0,0,0,0,0,0,0,0,0,0,0,0,0,0,0,0,0,0,300,300,300,301,301,301,301,301,301,302,302,302,302,302,303,303,304,0,0,0,471,472,472,472,472,472,473,473,473,475,0,479,480,481,481,479,478,0,0,0,0,0,0,0,0,420,419,419,418,418,418,493,494,495,495,497,0,500,501,501,501,501,502,501,501,501,502,504,505,508,510,511,513,512,511,510,509,510,0,513,515,517,518,513,514,0,0,508,0,0,0,0,0,490,0,0,0,0,0,0,0,0,0,0,0,0,0,0,0,0,0,0,0,0,0,0,0,0,0,0,0,0,0,0,0,367,366,365,365,364,364,363,362,0,361,359,359,358,357,356,356,355,353,352,351,351,350,350,349,349,349,349,349,349,348,348,348,347,346,345,345,345,345,346,347,350,352,353,354,354,354,355,354,0,0,0,0,0,0,0,0,0,0,0,0,0,0,0,0,0,0,0,0,0,0,0,0,0,0,0,0,0,0,0,0,0,0,0,0,0,0,0,0,0,0,0,0,0,0,0,0,0,0,0,0,0,0,0,467,467,467,466,465,466,466,465,465,0,0,0,0,0,0,0,0,0,0,0,0,0,0,0,0,0,0,0,0,0,0,0,0,0,0,0,0,0,0,0
0,0,0,0,0,0,0,0,0,0,0,0,0,0,0,0,0,0,0,0,0,0,0,0,0,0,0,0,0,0,0,0,0,0,0,0,0,0,0,0,0,0,0,0,0,0,0,0,0,302,0,302,301,301,301,301,301,302,302,302,302,302,302,302,302,303,303,303,304,304,304,0,471,471,472,472,472,472,473,472,473,475,475,475,477,477,476,475,471,0,0,0,440,428,426,423,420,418,418,418,417,417,417,494,495,496,498,499,500,501,503,503,504,504,504,504,503,503,505,0,0,509,510,511,511,511,511,511,511,511,513,515,518,519,520,520,520,520,518,515,514,0,511,0,501,494,0,0,0,0,0,0,0,0,0,0,0,0,0,0,0,0,0,0,0,0,0,0,0,0,0,0,0,0,0,0,0,368,366,365,365,364,364,363,362,362,361,360,359,359,357,357,356,355,354,353,352,352,351,351,350,350,350,350,350,350,350,350,349,349,348,346,348,346,347,349,348,351,353,354,355,355,355,357,356,0,0,0,0,0,0,0,0,386,385,385,0,0,0,0,0,0,0,0,0,0,0,0,0,0,0,0,0,0,0,0,0,0,0,0,0,0,0,0,0,0,0,0,0,0,0,0,0,0,0,0,468,468,468,0,0,468,468,467,467,467,468,468,468,469,0,0,0,0,0,0,0,0,0,0,0,0,0,0,0,0,0,0,0,0,0,0,0,0,0,0,0,0,0,0
0,0,0,0,0,0,0,0,0,0,0,0,0,0,0,0,0,0,0,0,0,0,0,0,0,0,0,0,0,0,0,0,0,0,0,0,0,0,0,0,0,0,0,0,0,0,0,0,302,302,302,302,302,301,302,302,302,302,302,302,302,303,303,303,303,303,303,304,304,304,304,305,0,471,471,471,471,472,472,472,471,471,470,470,468,466,464,468,0,0,447,439,435,0,0,421,418,417,417,416,416,416,416,497,498,499,501,501,502,505,506,506,506,506,506,506,505,506,507,508,508,509,510,510,510,510,511,511,512,514,514,517,520,521,521,520,520,0,0,515,514,514,0,0,501,0,0,480,476,475,474,472,471,0,0,0,0,0,0,0,0,0,0,0,0,0,0,0,0,0,0,0,0,0,0,0,0,0,366,365,365,364,364,363,362,362,361,360,359,359,358,357,356,356,355,354,353,353,353,352,352,352,352,352,352,352,352,352,352,352,351,0,350,350,350,351,352,355,356,356,357,357,357,358,0,0,0,0,0,0,0,387,386,386,385,384,383,0,0,0,0,0,0,0,0,0,0,0,0,0,0,0,0,0,0,0,0,0,0,0,0,0,0,0,0,0,0,0,0,0,0,0,0,468,468,468,468,468,468,468,468,468,468,468,468,469,469,470,471,471,473,473,468,460,457,453,0,0,0,0,0,0,0,0,0,0,0,0,0,0,0,0,0,0,0,0,0,0,0,0
0,0,0,0,0,0,0,0,0,0,0,0,0,0,0,0,0,0,0,0,0,0,0,0,0,0,0,0,0,0,0,0,0,0,0,0,0,0,0,302,302,302,302,302,302,302,302,302,302,302,302,302,302,302,302,302,302,303,303,303,303,303,303,303,303,304,304,304,304,305,305,305,0,0,0,0,471,0,471,471,470,470,469,468,466,463,461,459,456,451,447,442,431,426,423,420,418,417,416,416,416,416,416,0,499,500,501,502,503,505,506,506,506,506,506,506,506,506,506,507,507,507,508,508,509,509,510,511,513,514,515,518,521,521,521,520,0,518,517,513,512,512,511,0,498,0,0,478,474,473,472,470,469,468,467,466,464,463,463,463,462,0,0,0,0,0,0,0,0,0,0,0,0,0,0,0,0,0,0,0,367,365,364,363,363,362,361,361,360,360,359,358,358,357,356,356,355,355,354,354,353,353,353,354,354,354,354,354,354,353,352,352,352,352,352,353,355,356,358,358,358,359,359,359,0,0,0,0,0,0,0,387,386,385,384,383,382,0,0,0,0,0,0,0,0,0,0,0,0,0,0,0,0,0,0,0,0,0,0,0,0,0,0,0,0,0,0,0,0,0,0,0,470,469,469,469,468,467,467,467,467,468,468,468,469,471,0,472,473,474,474,474,470,462,458,454,450,0,0,0,0,0,0,0,0,0,0,0,0,0,0,0,0,0,0,0,0,0,0,0
0,0,0,0,0,0,0,0,0,0,0,0,0,0,0,0,0,0,0,0,0,0,0,0,0,0,0,0,0,0,0,0,0,0,0,0,0,0,302,303,302,302,302,303,302,302,302,303,303,304,304,304,304,304,304,304,304,304,304,304,304,304,304,304,304,304,304,304,305,305,305,305,0,0,0,0,0,0,0,0,470,469,468,0,466,461,459,0,452,448,444,440,431,427,424,421,418,417,416,416,415,415,415,500,500,501,502,503,503,504,505,505,505,505,506,505,504,505,503,503,501,501,501,502,503,505,506,507,509,512,513,514,516,516,516,514,514,513,514,510,508,508,506,503,0,0,0,477,473,0,471,469,469,468,467,466,464,463,463,462,462,461,0,461,0,0,0,0,0,0,0,0,0,0,0,0,0,0,371,369,368,366,365,364,363,362,362,361,361,360,359,359,358,358,357,356,356,356,355,355,355,355,355,355,355,355,355,355,355,355,354,354,354,354,0,355,357,358,359,360,360,360,360,361,0,0,0,0,0,0,389,387,387,385,383,382,381,380,380,0,0,0,0,0,0,0,0,0,0,0,0,0,0,0,0,0,0,0,0,0,0,0,0,0,0,0,0,0,0,0,0,0,467,467,467,466,466,466,465,466,466,467,468,469,470,472,473,474,474,475,475,474,471,466,0,453,450,0,0,0,0,0,443,0,444,445,445,0,0,0,0,0,0,0,0,0,0,0,0,0
0,0,0,0,0,0,0,0,0,0,0,0,0,0,0,0,0,0,0,0,0,0,0,0,0,0,0,0,0,0,0,0,0,0,0,0,0,0,0,303,303,303,303,303,303,304,0,0,0,0,0,305,306,306,306,305,305,305,305,305,305,305,304,304,305,305,305,305,305,305,305,305,0,0,0,0,0,0,0,0,471,470,469,468,467,462,459,0,452,448,444,440,431,426,423,420,418,416,415,415,415,415,414,501,501,501,501,501,501,501,501,501,500,500,500,500,500,499,500,500,499,498,499,500,501,503,504,506,508,510,511,512,513,513,0,512,511,511,510,509,507,506,504,500,0,0,479,476,473,472,471,469,468,468,467,466,464,464,463,463,462,461,461,461,461,0,0,0,0,0,0,0,0,0,0,376,0,373,372,371,368,367,366,365,364,362,362,362,361,361,360,359,359,358,358,357,357,357,356,356,356,356,356,356,356,356,356,356,356,356,355,355,355,355,355,356,358,359,360,361,361,361,362,0,0,0,0,0,0,0,389,388,387,386,384,382,381,380,379,379,0,0,0,0,0,0,0,0,0,0,0,0,0,0,0,0,0,0,0,0,0,0,0,0,0,0,0,0,0,0,0,0,465,465,465,0,464,464,463,463,464,466,0,468,470,473,473,475,475,475,475,475,467,0,0,454,450,446,445,443,443,444,444,444,445,445,446,447,447,448,449,0,0,0,0,0,0,0,0,0
0,0,0,0,0,0,0,0,0,0,0,0,0,0,0,0,0,0,0,0,0,0,0,0,0,0,0,0,0,0,0,0,0,0,0,0,0,303,303,303,303,304,304,304,304,304,305,305,305,306,307,307,307,307,307,307,306,306,306,305,305,305,305,305,305,305,305,305,305,305,306,305,487,486,487,0,0,0,484,481,475,473,472,471,468,464,462,458,458,450,446,440,435,425,423,420,418,416,415,415,415,414,499,498,499,499,499,499,499,498,498,498,497,497,497,497,496,496,496,496,496,495,496,497,498,499,502,503,505,507,508,509,510,510,510,510,510,509,508,508,506,504,502,498,493,0,479,475,472,471,470,468,468,467,466,466,464,464,463,463,462,462,461,461,461,0,0,0,0,0,0,0,0,0,0,375,374,374,373,372,369,368,367,365,364,363,363,362,362,361,360,360,359,359,358,358,358,359,358,358,358,358,357,357,357,357,357,357,357,357,356,357,357,357,358,359,360,361,362,363,363,363,0,0,0,0,0,0,0,0,0,388,387,386,383,381,381,380,379,378,0,0,0,0,0,0,0,0,0,0,0,0,0,0,0,0,0,0,0,0,0,0,0,0,0,0,0,0,0,463,0,0,0,464,461,461,461,461,460,461,461,463,467,467,469,472,473,475,475,475,475,475,468,0,0,454,450,446,445,444,444,444,444,445,445,446,446,447,448,449,450,451,0,0,0,0,0,0,0,0
0,0,0,0,0,0,0,0,0,0,0,0,0,0,0,0,0,0,0,0,0,0,0,0,0,0,0,0,0,0,0,0,0,0,0,0,0,0,0,0,304,304,304,304,305,305,305,307,0,0,309,308,309,309,308,307,307,307,306,306,306,306,305,305,305,305,305,305,306,306,306,306,0,0,0,0,0,0,0,0,0,480,0,0,0,0,0,0,462,459,455,439,435,430,423,420,418,416,415,415,0,0,496,496,496,496,496,496,496,495,495,494,493,493,493,493,493,493,493,493,493,493,494,495,496,497,500,501,503,504,506,506,508,508,508,508,508,507,506,506,503,501,500,493,489,485,478,475,472,471,469,468,468,467,467,466,464,464,463,463,462,462,461,461,461,0,0,0,0,0,0,0,0,0,0,376,375,375,374,374,371,370,368,367,366,364,363,363,362,362,361,361,361,360,360,360,360,360,359,359,359,358,358,358,358,358,358,358,357,357,357,358,358,358,359,360,361,362,364,364,364,364,0,0,0,0,0,0,0,392,390,389,388,386,383,382,380,380,379,377,0,0,0,0,0,0,0,0,0,0,0,0,0,0,0,0,0,0,0,0,0,0,0,0,0,0,0,0,457,460,0,0,459,459,459,459,459,459,459,459,460,462,464,466,468,471,472,473,474,475,476,476,471,467,0,0,452,448,447,444,444,445,445,445,446,446,447,448,450,450,451,452,454,0,0,0,0,0,0,0
0,0,0,0,0,0,0,0,0,0,0,0,0,0,0,0,0,0,0,0,0,0,0,0,0,0,0,0,0,0,0,0,0,0,0,0,0,0,0,0,305,306,306,306,306,306,307,307,308,309,309,309,310,310,309,309,308,308,307,307,306,306,306,306,306,306,306,306,306,306,306,306,489,489,489,489,490,489,489,486,484,482,481,479,477,474,472,469,0,0,0,0,0,0,0,0,0,0,0,0,0,494,494,494,494,494,493,493,493,493,492,491,491,490,491,490,490,489,489,489,490,491,491,493,495,496,498,498,499,500,500,500,501,501,501,501,501,501,501,499,499,496,494,490,487,483,479,475,472,471,470,468,468,467,467,466,465,464,464,463,462,462,462,461,461,460,0,0,0,0,0,0,0,0,0,377,376,376,375,375,372,371,369,367,366,364,364,363,363,362,362,362,361,361,361,361,361,360,360,360,359,359,359,358,358,358,358,358,358,358,358,358,0,359,359,361,361,363,364,364,365,365,0,0,0,0,0,0,396,393,391,390,388,387,383,381,381,379,379,378,377,377,376,376,375,0,0,0,0,0,0,0,0,0,0,0,0,0,0,0,0,0,0,0,0,0,456,0,456,457,457,0,0,457,458,458,458,458,458,458,459,461,463,465,467,470,471,472,473,474,475,475,472,0,0,0,0,450,448,445,444,445,445,446,447,447,448,449,450,451,452,454,0,0,0,0,0,0,0,0
0,0,0,0,0,0,0,0,0,0,0,0,0,0,0,0,0,0,0,0,0,0,0,0,0,0,0,0,0,0,0,0,0,0,0,0,0,0,0,0,306,306,306,306,306,307,307,307,308,309,310,310,310,310,310,309,309,308,308,307,307,306,306,306,306,306,306,306,306,306,307,307,489,489,489,489,490,489,489,487,486,485,484,482,481,478,477,475,475,0,0,475,475,477,0,480,482,483,486,488,489,489,489,489,489,488,488,488,488,488,487,487,487,487,487,487,487,487,487,488,489,490,490,493,494,495,496,497,497,497,497,498,498,498,499,499,499,499,499,497,496,494,491,489,486,482,480,475,472,471,470,469,468,467,467,466,465,464,464,463,463,462,461,461,461,0,0,0,0,0,0,0,0,0,0,377,376,376,376,375,373,371,370,368,367,365,365,364,363,363,362,362,362,362,361,361,361,361,361,360,360,360,359,359,359,358,358,358,358,358,358,359,359,359,360,361,362,363,364,365,365,366,0,0,0,0,0,0,397,394,393,391,389,387,383,382,381,380,379,378,377,377,376,376,375,0,0,0,0,0,0,0,0,0,0,0,0,0,0,0,444,0,449,453,454,454,456,0,0,456,455,0,0,456,456,457,456,457,457,457,458,459,462,463,466,468,469,471,471,473,473,474,472,0,0,460,0,451,448,445,445,445,446,446,447,448,449,450,451,452,453,455,456,457,457,458,457,0,0,0
0,0,0,0,0,0,0,0,0,0,0,0,0,0,0,0,0,0,0,0,0,0,0,0,0,0,0,0,0,0,0,0,0,0,0,0,0,0,0,0,306,306,306,306,307,307,307,308,309,309,310,310,310,310,310,310,309,309,308,307,307,307,306,306,306,306,306,307,307,307,307,307,308,489,489,489,490,490,489,489,488,487,487,486,484,482,481,479,0,480,475,476,476,477,476,477,479,480,483,486,486,486,487,487,486,486,485,485,485,485,485,485,485,485,485,486,486,486,487,487,488,489,489,492,493,494,495,495,495,495,495,495,496,496,497,497,497,497,496,494,493,491,489,486,484,0,479,475,473,471,470,469,468,468,467,466,465,464,464,464,462,461,461,460,460,0,0,0,0,0,0,0,0,0,0,377,377,377,376,375,374,372,371,369,368,366,365,364,364,363,363,363,362,362,362,362,362,362,362,361,361,361,360,360,359,359,359,359,358,358,358,359,360,360,361,362,363,364,365,366,366,368,0,0,0,0,0,0,397,395,393,392,390,388,384,382,381,381,380,379,378,377,377,376,375,0,0,0,0,0,0,429,431,432,432,432,433,0,0,442,445,447,449,453,453,454,454,0,0,455,455,0,455,455,455,455,455,455,455,456,457,458,460,461,463,464,466,467,468,469,470,471,470,467,462,457,0,0,447,445,444,445,446,447,449,450,450,451,453,454,455,457,458,458,458,458,458,457,0,0
0,0,0,0,0,0,0,0,0,0,0,0,0,0,0,0,0,0,0,0,0,0,0,0,0,0,0,0,0,0,0,0,0,0,0,0,0,0,0,0,306,307,307,307,307,307,308,308,309,309,309,310,310,310,310,310,309,309,308,307,307,307,307,307,307,307,307,307,307,308,308,308,308,308,489,489,490,490,490,489,489,489,489,488,487,487,486,484,482,481,479,478,476,475,475,475,475,0,478,479,482,483,0,483,483,483,483,482,482,483,483,483,484,484,484,484,485,485,486,487,487,488,489,491,492,493,493,0,493,493,493,493,493,492,492,493,492,491,490,489,489,488,481,480,478,478,476,474,473,472,471,469,468,468,467,466,465,463,462,461,459,458,457,456,455,455,0,0,0,0,0,0,0,0,0,378,377,377,377,376,374,374,372,371,369,367,367,366,365,365,364,364,364,364,363,363,363,363,362,362,361,361,360,360,360,359,359,359,358,359,359,360,361,361,362,364,364,365,366,366,367,0,0,0,0,0,0,0,398,395,394,393,391,388,385,383,382,381,381,379,378,377,377,376,375,375,0,0,0,424,426,427,428,430,430,431,432,436,437,440,0,448,449,452,452,452,453,0,453,0,454,454,454,454,454,454,454,454,455,456,457,457,459,460,462,462,464,465,466,467,469,470,469,466,460,456,451,0,446,444,444,445,446,447,449,450,451,452,454,455,456,458,458,459,459,458,458,0,0,0
0,0,0,0,0,0,0,0,0,0,0,0,0,0,0,0,0,0,0,0,0,0,0,0,0,0,0,0,0,0,0,0,0,0,0,0,0,0,0,306,306,306,307,307,307,307,307,308,308,309,309,309,310,310,310,309,309,309,308,307,307,307,307,307,307,307,307,307,308,308,308,308,308,309,489,488,489,489,489,489,489,489,489,487,487,486,485,482,481,479,478,476,474,473,473,473,473,473,474,475,478,479,479,480,480,480,481,480,481,481,481,482,482,483,483,484,484,484,484,485,486,487,487,489,489,490,490,489,489,489,488,487,487,485,483,482,481,481,479,478,479,478,478,476,476,475,475,473,472,472,471,470,468,468,467,466,463,462,461,460,458,456,455,454,453,452,0,0,0,0,0,0,0,0,0,378,378,377,377,376,375,374,373,372,370,369,368,367,366,366,365,365,365,364,364,364,364,364,363,363,362,362,361,360,360,359,359,0,0,0,0,0,0,365,366,366,366,367,368,368,0,0,0,0,0,0,0,0,398,397,395,393,391,389,385,384,383,382,381,380,379,378,377,376,375,375,376,0,0,424,425,426,428,429,430,431,432,438,440,442,447,449,450,452,452,452,0,452,0,0,454,454,454,454,454,454,454,454,454,455,456,457,459,460,461,461,462,463,464,465,468,468,468,463,458,454,450,0,445,443,0,0,445,448,449,450,451,452,454,456,457,458,459,459,459,458,458,457,0,0
0,0,0,0,0,0,0,0,0,0,0,0,0,0,0,0,0,0,0,0,0,0,0,0,0,0,0,0,0,0,299,0,0,0,0,0,304,305,305,306,306,306,307,307,307,307,307,307,308,308,309,309,309,309,309,309,309,308,308,308,307,307,307,307,307,307,308,308,308,308,308,309,309,309,487,487,488,488,488,488,488,488,488,487,486,485,484,481,480,478,476,474,471,471,469,469,469,468,469,469,470,473,473,474,475,476,477,478,478,479,479,480,481,481,482,482,483,484,484,485,486,486,487,488,489,489,489,488,487,487,486,486,485,482,481,480,478,477,476,475,475,475,475,473,473,473,473,472,472,471,471,470,469,468,467,465,462,460,459,457,456,454,452,451,450,450,449,0,0,0,0,0,0,0,0,0,378,378,377,376,376,374,374,372,370,370,369,368,368,367,367,366,366,366,365,365,365,364,364,364,363,363,362,361,361,361,360,0,0,0,0,0,0,369,369,371,371,369,370,0,372,0,0,0,0,0,0,0,400,398,396,394,392,390,387,385,384,383,382,381,380,378,377,377,376,376,375,0,0,424,425,426,427,428,429,431,432,438,441,443,448,449,450,452,452,452,451,452,0,0,0,454,454,454,453,454,454,454,454,455,456,457,458,459,459,460,461,462,462,463,467,467,466,0,0,451,448,446,444,442,441,443,442,444,447,448,450,451,454,455,456,458,459,459,459,458,458,457,0,0
0,0,0,0,0,0,0,0,0,0,0,0,0,0,0,0,0,0,0,0,0,0,0,0,0,0,0,0,0,0,300,300,301,302,302,303,303,304,305,305,306,306,306,306,307,307,307,307,308,308,308,309,309,309,309,309,308,308,308,308,308,308,308,308,308,308,308,308,308,309,309,309,309,309,309,485,486,486,486,486,486,486,486,484,484,483,482,479,0,476,474,472,469,468,467,467,466,466,467,467,467,469,471,472,473,475,476,476,477,478,478,479,480,481,481,482,483,483,484,485,485,486,486,487,487,487,487,487,487,486,484,484,482,480,478,475,475,474,473,472,472,472,471,471,471,471,471,471,471,471,470,470,468,467,466,465,460,458,456,455,454,451,450,450,449,448,447,447,0,0,0,0,0,0,0,0,378,378,378,377,376,375,374,373,372,371,370,370,369,368,368,368,367,367,366,366,367,366,366,366,0,0,0,0,0,0,0,0,0,0,0,0,0,0,376,374,373,373,0,0,373,0,0,0,0,403,0,404,401,399,397,395,393,390,387,386,385,384,383,382,381,379,378,377,376,376,376,376,0,424,424,0,426,426,428,430,432,439,441,445,449,450,451,452,452,452,452,0,0,0,0,454,454,453,453,454,454,454,454,455,456,457,457,457,457,457,457,458,459,459,461,465,464,0,0,446,442,440,440,438,438,439,440,441,446,447,448,450,453,455,456,457,458,458,458,458,0,458,0,0
0,0,0,0,0,0,0,0,0,0,0,0,0,0,0,0,0,0,0,0,0,0,0,295,295,296,297,297,298,0,299,301,301,301,302,303,303,303,304,304,305,305,306,306,306,306,306,307,307,307,307,308,308,308,308,308,308,308,308,308,308,308,308,308,309,309,309,309,309,309,309,310,310,310,310,484,484,484,485,484,485,485,485,484,483,482,481,479,476,475,473,471,469,467,466,466,465,464,465,465,465,466,468,470,471,473,475,475,476,476,477,478,479,480,481,481,482,483,483,484,485,485,486,486,486,486,486,0,486,485,484,483,481,479,476,473,473,472,471,470,471,471,469,469,468,469,469,469,468,469,468,468,466,465,463,461,459,455,452,450,449,448,446,446,445,445,444,444,444,0,0,0,0,0,0,0,0,378,378,377,377,376,376,375,374,374,374,373,372,371,371,370,370,369,368,368,368,367,367,367,367,366,0,0,0,0,0,0,0,0,383,383,382,380,0,0,375,375,0,375,375,0,0,0,403,0,406,405,403,401,399,397,394,391,388,387,386,385,384,382,381,379,378,377,376,376,376,375,375,375,423,424,425,425,426,429,432,440,443,449,450,451,452,453,453,452,452,452,452,0,453,0,454,453,453,454,455,455,455,456,456,456,457,456,456,456,456,456,457,457,0,0,0,0,0,446,437,436,436,435,435,435,437,438,441,445,446,448,451,454,455,457,457,458,458,458,458,458,0,0
0,0,0,0,0,0,0,0,0,0,0,0,0,0,0,0,0,0,0,0,0,294,295,295,296,296,297,297,299,0,299,300,301,301,302,302,303,303,304,304,304,305,305,305,306,306,306,306,307,307,307,307,308,308,308,308,308,309,309,309,309,309,309,309,309,309,309,310,310,310,310,310,310,310,310,484,484,484,484,484,484,484,484,483,482,482,481,479,475,473,471,469,467,465,464,463,462,462,462,462,463,464,467,468,470,472,473,474,475,476,477,478,479,480,481,481,482,483,484,484,485,486,486,486,486,486,486,486,486,485,483,482,0,477,474,472,470,469,468,468,468,468,468,468,468,468,468,468,468,468,467,467,465,463,461,460,457,452,450,449,448,446,445,444,444,444,443,443,443,0,0,0,0,0,0,0,0,0,379,378,378,377,377,376,376,375,375,374,373,373,372,371,370,370,369,369,369,368,368,368,368,367,368,368,369,372,374,0,0,383,385,385,384,382,381,379,378,377,0,377,376,0,0,0,0,0,409,408,405,405,401,398,395,390,388,387,386,386,384,382,381,379,378,377,376,376,376,375,375,375,375,423,424,424,425,429,434,444,448,452,453,453,454,454,0,453,453,453,453,453,0,0,0,455,455,455,456,456,456,456,456,457,456,456,455,455,455,455,455,455,0,0,0,0,0,440,435,433,433,433,433,434,435,437,439,443,445,446,450,452,454,454,456,457,457,458,457,457,0,0
0,0,0,0,0,0,0,0,0,0,0,0,0,0,0,0,0,0,0,0,0,295,295,295,296,297,297,299,299,299,300,301,301,301,302,302,303,303,303,304,304,304,305,305,305,306,306,306,306,307,307,307,307,307,308,308,308,309,309,309,309,310,310,310,310,310,310,310,310,310,310,310,311,311,311,484,483,483,483,483,483,483,483,482,482,481,480,478,472,469,466,463,461,460,458,458,457,457,457,458,458,460,463,465,467,471,473,473,474,476,476,477,479,479,480,481,482,483,484,484,485,486,486,487,487,487,487,486,486,486,484,0,481,477,474,472,469,468,468,467,467,467,467,467,467,467,468,467,467,466,466,465,462,460,459,457,454,452,448,447,446,445,444,443,443,442,442,442,442,442,0,0,0,0,0,0,0,0,381,380,379,378,378,377,377,377,376,376,374,374,373,372,371,371,370,370,369,369,369,369,369,368,369,369,371,374,376,378,383,385,386,386,385,384,383,380,379,378,0,377,0,0,0,0,0,0,411,410,408,0,404,0,398,392,389,388,387,386,384,0,381,379,378,377,376,375,376,375,375,375,375,422,423,423,425,428,0,0,449,454,454,454,454,0,454,454,454,453,453,454,0,0,0,0,456,456,457,457,457,457,457,457,456,455,455,454,454,454,453,453,451,449,0,0,0,0,0,432,432,432,431,432,434,434,435,439,441,442,444,449,451,451,454,455,455,456,456,456,0,0
0,0,0,0,0,0,0,0,0,0,0,0,0,0,0,0,0,0,0,0,0,295,295,295,296,297,297,299,299,300,300,301,301,301,302,302,302,303,303,304,304,304,305,305,305,306,306,306,306,307,307,307,307,307,308,308,309,309,309,309,310,310,310,310,310,310,310,310,310,311,311,311,311,311,311,482,482,482,482,482,482,482,482,482,481,481,479,476,470,467,463,461,459,457,456,455,455,455,455,456,457,458,461,463,466,470,472,473,475,476,477,478,479,480,480,481,483,484,484,484,485,486,486,487,487,487,487,486,486,486,484,482,481,478,0,473,470,469,468,468,467,467,467,467,467,467,467,467,466,465,464,0,460,458,456,454,452,450,447,446,445,444,443,442,442,442,441,441,441,440,440,0,0,0,0,0,0,0,383,382,381,380,379,378,378,378,377,377,375,375,374,373,372,371,371,370,371,370,370,370,370,370,370,371,372,374,377,379,383,385,386,387,387,385,384,383,382,0,0,0,0,0,0,0,0,412,412,411,410,408,406,0,0,0,389,388,387,386,385,382,380,0,377,377,376,376,376,375,375,375,375,375,422,423,424,0,0,0,449,454,454,454,454,454,454,454,453,453,453,454,454,0,0,456,456,458,458,458,458,457,457,457,455,454,454,453,452,451,450,450,449,446,444,442,0,0,0,0,430,430,429,430,431,432,434,435,439,440,442,447,449,450,452,453,455,455,455,456,0,0
0,0,0,0,0,0,0,0,0,0,0,0,0,0,0,0,0,0,0,0,0,0,295,296,296,297,297,299,299,300,300,301,301,301,302,302,302,302,303,303,304,304,304,305,305,305,306,306,306,306,307,307,307,307,308,308,309,309,310,310,310,310,311,311,311,311,311,312,312,312,312,312,312,313,0,0,0,0,0,0,482,482,482,482,481,481,478,475,471,0,460,457,0,454,453,452,452,452,453,454,455,456,458,462,465,467,472,473,475,476,477,478,479,480,481,481,483,484,484,485,486,486,487,487,487,487,487,487,486,486,485,482,481,478,0,473,471,469,469,468,468,467,466,466,464,463,462,461,0,0,460,459,455,454,451,449,448,446,444,443,442,441,441,440,440,440,440,440,440,440,0,0,0,0,0,0,393,390,0,0,385,384,382,381,380,380,380,378,377,377,376,375,374,373,372,372,371,371,371,371,371,371,371,371,372,375,377,379,383,385,387,388,387,386,385,384,383,0,0,0,0,0,0,0,0,414,413,413,411,410,408,0,0,0,0,0,0,0,384,381,0,378,377,377,376,376,376,375,375,375,375,376,422,423,423,427,0,0,447,453,455,454,454,454,454,454,453,453,454,454,454,455,456,457,457,459,460,460,459,459,458,457,455,454,453,452,451,450,450,449,447,444,443,441,439,437,434,431,430,429,429,429,430,431,432,433,437,439,440,445,447,449,451,452,453,454,454,454,0,0
0,0,0,0,0,0,0,0,0,0,0,0,0,0,0,0,0,0,0,295,295,295,296,296,296,297,298,299,299,300,300,301,301,301,302,302,302,303,303,303,304,304,304,305,305,305,306,306,306,306,307,307,307,307,308,308,309,310,310,311,311,311,311,312,312,312,312,312,312,312,312,313,313,313,313,0,0,0,0,0,0,482,482,482,481,479,476,0,0,0,455,454,451,451,450,450,450,450,450,452,452,454,456,460,463,466,471,473,474,476,477,478,479,480,481,481,483,484,484,485,486,486,487,487,487,487,487,486,485,484,484,482,481,479,476,475,470,467,466,466,465,0,465,463,0,0,459,0,0,0,0,0,452,451,449,448,446,444,443,441,440,440,440,439,439,439,439,439,439,439,0,0,0,0,0,395,394,392,0,0,0,386,384,382,382,381,381,379,378,378,377,376,374,374,373,373,372,372,372,372,371,372,372,372,373,375,377,379,383,385,387,388,387,387,385,385,384,0,0,0,0,0,0,0,0,0,414,413,410,409,407,0,0,0,0,0,0,0,383,380,379,378,377,377,376,376,375,375,375,376,376,376,0,0,0,426,0,0,0,452,454,454,454,454,454,454,454,0,454,454,454,456,457,457,458,461,461,461,460,459,458,457,455,453,452,451,450,449,449,447,446,444,442,440,438,436,434,430,429,429,429,429,429,430,431,433,436,437,441,444,445,447,450,451,452,452,453,0,0,0
0,0,0,0,0,0,0,0,0,0,0,0,0,0,0,0,0,0,295,295,296,296,296,296,297,297,298,298,299,300,300,301,301,301,302,302,303,303,304,304,304,304,305,305,305,305,306,306,306,306,307,307,307,307,308,308,309,310,310,310,311,311,312,312,312,312,312,313,313,313,313,313,313,313,314,0,0,0,0,0,0,481,482,481,480,478,474,0,0,454,450,446,445,445,445,445,445,446,446,447,449,450,452,457,460,463,469,471,472,475,475,477,479,480,481,482,484,484,485,485,487,487,487,487,488,487,486,485,484,484,482,481,480,479,476,474,468,466,464,463,463,462,461,0,459,456,0,0,0,452,0,0,450,449,446,445,443,442,441,440,439,439,439,438,438,438,438,438,438,438,436,0,0,0,0,397,396,394,393,391,0,0,385,384,383,383,382,381,380,379,378,377,376,375,374,374,374,373,373,373,373,373,373,373,374,376,378,380,384,386,387,388,388,387,386,386,385,386,386,0,0,0,0,0,0,0,0,0,0,0,0,0,0,0,0,0,0,0,0,379,378,378,377,377,376,376,376,376,376,376,376,376,376,0,0,0,432,0,0,452,0,454,454,454,454,454,0,0,454,454,455,456,457,458,458,461,461,461,460,459,458,457,454,452,451,450,449,447,446,445,444,442,440,439,437,435,434,430,430,429,429,429,429,430,431,433,435,437,438,441,443,445,446,449,450,450,0,0,0,0
0,0,0,0,0,0,0,0,0,0,0,0,0,0,295,295,295,295,296,296,296,296,296,296,297,297,297,298,299,299,300,301,301,302,302,303,303,304,304,304,304,305,305,305,305,306,306,306,306,307,307,307,307,307,308,308,309,310,310,311,311,312,312,313,313,313,313,313,313,313,313,313,314,314,314,315,315,0,0,481,480,480,480,479,478,473,471,0,0,449,446,444,443,443,443,443,444,444,445,445,447,449,450,455,458,461,467,469,471,473,474,476,479,480,481,482,484,484,485,485,486,487,487,487,487,487,486,485,484,483,482,480,479,478,475,473,467,464,0,461,0,0,0,0,0,0,0,450,450,449,448,447,446,446,445,443,441,440,439,438,438,438,438,437,437,437,437,437,436,437,434,0,0,0,0,397,397,395,394,392,391,389,386,385,384,384,383,381,381,380,379,378,377,376,376,375,375,375,375,375,374,374,374,375,375,378,379,381,385,387,388,389,389,388,388,388,387,387,387,0,0,0,0,0,0,0,0,0,0,0,0,0,393,0,0,0,0,0,0,379,378,377,377,377,376,376,376,376,376,376,377,377,377,0,0,0,437,0,446,0,454,0,454,454,454,454,0,0,454,454,455,456,457,458,458,461,461,460,459,458,457,456,452,450,449,448,446,445,442,440,440,438,436,435,435,434,433,431,430,430,429,429,430,431,432,433,436,437,438,441,443,445,446,448,449,450,0,0,0,0
0,0,0,0,0,0,0,0,0,0,0,0,294,295,295,295,295,295,295,295,296,296,296,296,297,297,297,298,299,299,300,301,301,302,302,303,304,304,305,305,305,305,306,306,306,306,306,306,306,307,307,307,307,308,308,308,309,310,310,311,312,312,312,313,313,313,313,314,314,314,314,314,314,315,315,315,316,0,0,0,479,478,478,477,474,0,461,0,450,445,443,441,441,441,441,442,442,443,443,444,446,447,449,454,456,459,466,468,469,473,474,475,477,480,481,482,484,484,484,485,486,486,486,486,486,486,485,483,482,481,480,479,478,476,473,0,0,462,459,458,457,454,451,0,0,0,447,447,446,445,444,443,442,441,441,439,438,438,437,436,436,435,436,436,436,436,436,436,436,436,0,0,0,0,399,398,397,396,395,394,393,391,388,387,386,386,384,383,383,382,381,380,379,378,378,377,376,376,376,375,375,375,375,375,376,378,380,381,385,387,388,390,389,389,388,389,388,388,388,0,0,0,0,0,0,0,0,0,0,0,0,392,390,389,386,385,0,382,381,379,379,378,377,377,377,377,377,377,377,377,377,377,377,378,0,0,0,0,445,0,454,0,454,454,454,454,454,454,454,455,455,456,457,458,458,460,460,460,459,458,457,455,454,450,448,447,445,443,440,439,437,436,435,434,433,433,433,432,432,431,431,432,432,432,433,434,437,438,439,441,443,445,446,448,449,449,0,453,0,0
0,0,0,0,0,0,0,0,0,0,0,0,294,295,295,295,295,295,295,295,295,296,296,296,296,296,297,297,298,299,299,300,301,302,303,304,304,305,306,306,306,306,306,306,306,306,306,306,306,307,307,307,307,308,308,308,309,310,310,311,312,312,313,313,313,313,314,314,314,314,314,314,314,315,315,316,316,316,0,0,0,478,477,475,472,468,456,0,446,443,441,440,440,440,440,440,440,441,442,443,445,446,448,450,454,457,463,466,467,471,472,474,476,479,481,482,483,484,0,484,484,484,484,483,484,483,482,482,479,478,476,475,473,472,472,0,464,458,456,454,452,451,450,449,447,447,446,445,445,444,443,442,441,440,439,438,437,436,436,435,435,435,435,435,435,435,435,435,435,436,0,0,0,0,399,397,397,396,396,395,393,391,390,388,387,387,385,384,384,383,382,381,380,379,379,378,377,377,377,376,376,376,376,376,377,379,380,382,385,387,388,390,389,389,389,390,390,389,389,0,0,0,0,0,0,0,0,0,0,0,388,387,387,387,386,385,384,382,381,380,379,378,378,377,377,377,377,377,377,377,378,378,378,378,0,0,0,0,0,0,0,454,454,454,454,454,454,455,455,455,455,456,457,457,458,460,460,460,458,457,456,455,452,449,447,445,443,441,438,437,435,435,434,433,433,432,432,432,432,432,432,433,433,433,434,435,437,438,439,442,443,445,446,448,449,450,0,0,0,0
0,0,0,0,0,291,0,0,0,293,293,293,294,294,294,295,295,295,295,296,296,296,296,296,296,296,296,297,298,298,299,300,301,302,303,304,305,305,306,306,306,306,306,306,306,306,306,306,306,307,307,307,307,308,308,308,309,310,310,311,312,313,313,313,314,314,314,314,314,314,315,315,315,315,316,316,316,317,0,0,0,476,474,469,467,461,450,445,0,438,437,437,437,438,438,438,438,439,440,441,442,445,446,448,452,454,456,460,463,465,469,0,475,0,0,483,0,0,483,483,483,483,482,482,482,481,481,479,478,477,475,474,471,470,466,463,0,458,453,452,450,450,447,447,446,445,444,444,444,443,443,441,440,440,438,437,436,435,435,435,435,434,435,435,435,435,435,435,435,435,0,0,0,0,398,397,397,396,395,395,394,391,390,389,388,387,386,385,385,384,383,382,381,380,380,378,378,378,377,377,377,377,377,377,378,380,381,382,386,387,389,390,390,390,390,391,391,391,392,394,0,0,0,0,0,0,0,0,403,392,389,388,387,387,386,385,384,383,382,381,380,379,379,378,378,378,378,378,378,378,378,378,378,379,0,0,0,0,0,0,453,0,0,454,455,455,455,455,455,455,455,456,456,457,457,459,459,458,457,456,455,454,452,448,446,444,442,440,436,435,434,433,432,431,431,431,431,432,432,433,433,433,434,435,435,436,438,439,440,442,444,445,447,448,449,450,0,0,0,0
0,0,0,290,290,291,291,292,292,292,293,293,294,294,294,295,295,295,295,296,296,296,296,296,296,296,296,296,297,298,298,300,301,302,304,304,305,306,306,306,306,306,306,306,306,306,306,306,307,307,307,307,307,308,308,309,310,310,311,312,312,313,313,314,314,314,314,314,315,315,315,315,315,316,316,316,317,317,318,318,318,473,465,457,452,454,0,0,437,436,436,436,436,436,436,437,437,438,439,440,441,444,446,447,451,453,455,0,0,0,0,0,0,0,0,0,0,0,483,482,482,481,482,481,481,480,0,477,476,474,473,471,469,467,464,461,458,456,451,450,450,449,447,446,445,444,443,443,442,442,441,440,439,439,438,437,435,435,434,434,434,434,434,434,434,435,435,435,435,435,0,0,0,0,398,397,397,396,396,395,394,392,391,390,389,388,387,386,386,385,384,382,382,381,381,381,380,380,379,379,379,379,379,380,381,383,384,0,389,390,391,392,393,393,394,0,394,395,397,0,0,0,418,0,0,0,0,0,0,0,0,388,387,387,386,384,384,383,382,381,380,379,379,379,379,379,378,378,378,379,379,379,379,379,380,0,0,0,0,0,0,0,0,455,455,455,455,455,455,455,455,456,456,456,457,458,458,457,454,453,452,450,449,446,444,442,440,438,435,433,431,430,430,429,429,430,430,431,432,433,433,434,435,436,436,438,440,441,442,445,447,448,450,452,454,0,0,0,0,0
0,0,0,290,290,290,291,291,292,292,293,293,293,294,294,294,295,295,295,295,295,296,296,296,296,296,296,296,297,297,298,298,300,301,303,304,305,306,306,306,306,306,306,306,306,306,306,306,307,307,307,307,307,308,308,309,310,310,311,312,313,313,314,314,314,315,315,315,315,315,316,316,316,316,317,317,317,317,318,318,318,319,319,319,0,0,0,438,437,434,434,435,435,435,435,435,436,437,438,439,440,443,445,447,451,452,454,0,0,0,0,0,0,0,0,0,0,0,482,482,481,481,481,480,480,478,477,476,474,472,0,468,466,465,462,459,457,455,451,450,448,447,446,444,443,442,442,441,440,440,440,438,438,437,436,435,434,434,433,433,433,433,433,433,434,434,435,435,435,435,0,0,0,0,399,398,397,397,396,395,394,393,392,391,391,390,389,389,388,387,386,385,384,383,383,381,381,381,381,381,381,381,381,381,383,384,386,0,390,391,393,393,394,394,395,396,396,397,399,0,0,0,419,418,0,417,0,407,402,0,0,390,388,387,386,384,383,383,382,381,381,380,380,380,379,379,379,379,379,379,380,380,380,380,380,381,0,0,451,453,0,0,455,455,455,455,455,455,455,455,455,455,455,455,455,455,455,454,452,452,450,449,448,445,443,441,439,437,435,432,431,430,429,429,429,429,430,430,432,433,433,435,437,437,438,440,441,442,444,447,449,450,453,455,0,0,0,0,482,484
0,0,289,289,289,290,290,291,291,291,292,293,293,293,294,294,294,295,295,295,295,295,295,295,295,295,295,295,295,296,297,298,300,301,302,304,305,306,306,306,306,306,306,306,306,306,306,306,306,307,307,307,308,308,309,309,311,311,312,313,313,314,314,314,315,315,315,316,316,316,316,316,317,317,317,317,317,318,318,318,319,319,319,319,319,440,438,436,435,433,433,433,433,434,434,434,435,435,436,437,439,442,444,446,450,452,0,0,0,0,0,0,0,0,0,0,0,0,0,482,481,479,479,478,478,478,476,0,0,0,0,0,465,462,461,458,456,454,450,448,447,446,445,443,442,441,441,440,440,440,439,438,437,436,436,435,434,433,433,433,432,433,433,433,434,434,435,435,435,436,0,0,0,0,399,398,398,397,396,395,394,393,393,392,392,392,391,390,390,389,387,387,386,385,384,383,382,382,382,382,382,382,382,383,385,386,387,390,392,393,394,395,395,396,397,397,398,398,400,403,0,0,420,420,421,419,415,416,0,0,0,393,389,387,387,385,383,383,382,381,381,381,381,380,380,380,380,380,380,380,381,381,381,381,381,381,0,0,454,454,0,0,455,455,455,455,455,455,455,455,454,454,454,454,454,454,453,453,452,450,449,448,446,444,442,440,438,436,435,432,431,430,429,429,429,429,430,430,432,433,434,435,437,438,439,442,443,444,446,449,450,452,455,457,0,0,0,478,482,484
288,288,288,289,289,289,289,290,290,291,292,292,293,293,294,294,294,295,295,295,295,295,295,295,295,295,295,295,295,296,296,297,300,301,303,304,305,306,306,306,306,306,306,306,306,306,306,306,307,307,307,308,309,309,310,310,312,312,313,313,314,314,314,315,315,315,316,316,316,317,317,317,317,317,318,318,318,318,319,319,319,319,319,319,319,320,432,431,431,431,431,431,431,431,431,432,432,432,434,434,436,439,441,444,0,0,0,0,0,0,0,0,0,0,0,0,0,0,0,0,480,479,478,478,477,0,0,0,0,0,0,0,0,462,0,0,0,0,448,447,446,445,444,442,441,440,440,440,440,439,439,438,437,436,435,435,433,433,432,432,432,432,433,433,433,434,435,435,435,436,0,0,0,0,401,399,398,397,396,395,394,393,393,393,393,392,392,392,391,391,389,388,387,386,385,384,384,383,383,383,383,383,384,384,387,387,389,391,393,394,395,396,397,397,398,399,399,0,402,0,0,419,423,423,422,422,421,420,0,0,0,0,0,392,388,387,386,384,383,382,382,382,382,381,382,382,382,381,381,381,381,381,382,382,382,382,0,0,454,0,454,454,455,455,455,455,455,454,454,454,453,453,453,452,452,453,452,452,451,449,448,447,445,444,441,440,438,436,435,432,431,430,430,430,430,430,430,431,433,434,434,435,438,440,440,443,444,446,448,451,452,454,458,462,461,467,471,475,481,483
288,288,288,288,289,289,289,290,290,290,291,292,292,293,294,294,294,295,295,295,295,295,295,295,295,294,295,294,295,295,296,296,299,300,302,304,305,306,306,306,306,306,306,306,306,306,306,306,306,307,308,309,310,311,311,312,313,313,313,314,314,314,315,316,316,316,317,317,317,317,318,318,318,318,318,318,318,319,319,319,319,319,319,320,320,320,0,430,430,430,430,430,430,430,430,431,431,431,432,433,434,437,0,0,0,0,0,0,0,0,0,392,392,391,392,392,0,0,0,0,0,0,0,0,476,0,0,0,0,0,0,0,0,459,456,0,0,0,0,445,444,443,443,441,440,440,440,439,439,439,438,438,437,436,435,434,433,432,432,432,432,432,432,433,433,434,435,435,436,437,435,0,0,0,407,399,399,398,0,0,0,394,394,394,394,394,394,393,393,392,391,390,389,388,387,388,387,387,386,386,386,386,386,388,389,390,391,393,395,396,398,398,399,400,400,400,400,402,405,409,0,421,424,424,424,423,423,422,420,418,416,0,0,0,389,388,385,385,383,382,382,382,382,382,382,382,382,382,382,382,382,382,382,382,382,382,0,0,0,454,454,454,454,454,454,454,454,454,453,452,452,452,452,451,452,451,451,450,449,447,446,445,444,442,440,439,437,436,435,433,432,431,431,431,431,431,432,432,434,435,435,436,439,440,441,444,446,448,452,454,456,458,461,463,465,470,473,476,480,482
287,287,288,288,288,288,288,289,289,290,290,291,292,293,293,294,294,294,295,295,295,295,295,295,294,294,294,294,294,294,295,295,299,300,303,304,306,306,306,306,306,306,306,306,306,306,306,306,306,307,308,309,310,311,312,313,0,314,314,315,315,315,317,317,318,318,319,319,319,319,319,319,319,319,319,319,319,319,319,320,320,320,320,320,320,320,320,429,429,429,429,429,429,429,429,429,430,430,431,431,433,434,0,0,0,0,0,0,0,0,391,391,391,391,391,392,392,0,0,0,0,0,0,0,0,0,0,0,0,0,0,0,0,0,450,0,0,0,0,441,440,440,440,440,439,438,438,438,438,438,438,437,436,435,434,434,432,432,431,431,431,432,432,433,433,435,435,436,437,438,437,0,0,0,0,411,404,0,0,0,0,396,396,396,396,396,396,396,396,395,395,394,393,393,391,390,389,389,388,388,388,388,388,389,390,391,392,394,395,398,399,399,400,401,401,401,401,403,407,0,0,423,425,425,425,425,425,425,424,424,0,415,0,0,0,0,387,385,384,382,383,383,383,383,383,383,383,382,382,382,382,382,383,382,383,383,0,0,454,454,454,454,454,453,453,452,452,451,450,450,450,450,450,450,450,450,449,449,448,447,446,444,443,442,440,438,437,437,436,434,434,434,434,434,434,434,434,435,435,436,436,437,440,441,442,445,447,448,452,455,456,458,462,463,465,470,473,476,480,481
287,287,287,287,287,287,287,287,288,288,289,290,291,292,293,293,294,294,294,294,0,0,0,0,294,294,294,294,294,295,295,296,299,0,304,305,306,306,306,306,306,306,306,0,0,0,0,0,0,0,0,0,0,312,313,314,314,314,315,315,315,316,317,317,318,319,320,320,320,320,320,320,320,320,320,320,320,320,320,320,320,320,321,320,321,321,321,428,428,428,428,428,428,428,428,428,428,428,429,430,431,432,0,0,0,0,0,0,0,0,391,391,391,391,391,392,392,391,392,391,0,0,0,0,0,0,0,0,0,0,0,0,0,447,0,0,0,0,0,439,439,439,439,439,438,438,438,438,438,438,437,437,435,435,434,433,432,431,431,431,431,432,432,433,433,435,436,437,437,438,438,437,0,424,0,0,0,0,0,0,0,397,397,397,397,397,398,398,398,397,397,396,395,394,393,392,392,391,390,390,390,390,390,391,392,392,394,395,396,397,399,400,401,401,401,0,402,405,0,0,0,425,427,427,427,427,426,426,426,426,426,420,416,412,407,415,406,0,0,384,383,383,383,383,384,384,383,383,383,383,383,384,384,384,384,383,0,0,454,454,454,454,453,452,451,451,450,450,449,449,449,449,449,449,449,449,449,448,447,446,445,444,443,442,439,438,437,436,436,435,435,435,435,435,435,435,435,435,435,436,436,437,439,440,441,445,447,448,452,454,456,458,462,464,466,470,472,475,479,480
287,287,287,287,287,287,287,287,287,288,288,290,291,292,293,293,294,294,294,294,0,0,0,0,0,0,0,294,294,295,295,296,299,0,0,305,306,306,306,306,306,306,0,0,0,0,0,0,0,0,0,312,313,313,313,314,315,315,315,315,315,316,0,0,318,319,320,320,321,321,321,321,320,320,320,320,320,320,320,320,321,321,321,321,321,321,322,426,425,426,426,426,426,426,426,426,427,427,427,428,428,428,0,0,0,0,0,0,0,0,391,391,391,391,391,391,391,391,391,391,391,0,0,0,0,0,0,0,0,0,0,0,0,0,0,0,439,439,438,438,438,438,438,438,437,437,437,437,437,437,437,436,435,434,434,433,432,431,431,431,431,432,432,433,434,435,436,437,438,439,438,437,0,0,0,0,0,0,0,0,398,398,398,398,398,398,398,398,398,398,398,398,397,396,395,395,394,393,392,392,392,392,392,393,393,394,395,395,397,398,400,0,401,402,402,0,403,0,0,0,424,426,429,429,429,429,429,429,429,428,427,427,426,425,425,424,0,0,0,0,0,0,385,385,385,385,385,384,385,385,385,384,384,384,384,384,0,0,454,454,454,453,452,451,451,450,450,448,448,448,448,448,448,448,448,448,447,447,446,445,444,443,442,440,438,437,436,435,435,434,434,435,435,435,435,436,435,435,434,434,434,436,437,438,440,445,447,449,451,453,456,458,463,464,466,469,472,474,478,479
287,287,287,287,286,286,286,286,287,288,288,0,0,292,293,293,293,293,294,294,294,0,0,0,0,0,0,294,294,295,295,295,0,0,304,305,306,306,306,306,306,306,0,0,0,0,0,0,0,0,0,0,0,0,0,0,315,315,315,315,315,316,0,0,0,319,321,321,321,321,321,321,321,320,320,320,320,320,321,321,321,321,322,322,322,322,425,425,425,425,425,425,425,425,425,425,426,426,426,427,427,428,0,0,0,0,0,0,0,0,391,391,391,391,391,391,391,391,391,391,391,391,391,0,0,0,0,0,0,0,0,0,0,0,441,0,437,437,437,437,437,437,437,437,436,437,436,436,436,436,436,435,434,434,433,432,431,431,431,431,431,432,432,433,434,435,436,437,438,439,439,437,435,0,429,0,0,0,404,401,399,399,399,399,398,399,399,399,399,399,399,398,398,397,398,398,397,397,397,397,397,397,397,397,397,397,398,399,399,401,0,0,403,404,404,0,0,0,0,0,428,430,430,430,430,430,430,430,429,428,428,427,426,0,424,0,423,0,0,0,0,0,385,385,386,385,386,385,385,385,386,385,385,385,385,385,0,0,454,454,454,453,452,450,449,449,448,447,446,446,447,447,447,447,447,447,446,445,444,440,438,437,436,435,435,434,434,434,434,434,435,435,437,437,437,437,436,434,432,431,431,433,433,437,439,445,446,448,451,452,455,457,462,464,466,469,471,473,476,478
287,287,286,286,286,286,286,286,287,287,288,0,291,292,293,293,293,293,293,294,0,0,294,0,0,0,0,294,294,295,295,297,300,301,305,305,306,306,306,306,306,306,306,0,0,0,0,0,0,0,0,0,0,0,0,0,315,315,315,315,315,316,316,0,0,0,0,321,321,321,321,321,321,321,321,321,321,321,321,322,322,322,322,323,323,323,424,424,424,424,424,424,424,424,424,425,425,425,426,426,427,427,428,0,0,0,0,0,0,391,391,391,391,391,391,391,391,391,391,391,391,390,391,391,0,0,0,0,0,0,0,0,0,0,440,438,437,437,436,436,436,436,435,435,435,435,435,435,435,434,434,434,433,432,431,431,431,431,431,431,431,432,432,433,434,436,437,438,438,439,438,438,436,434,429,0,0,0,405,401,401,400,400,400,400,399,399,399,399,399,399,399,398,399,398,398,398,398,398,399,398,398,399,399,399,399,399,400,401,0,0,403,404,405,407,0,0,0,0,428,430,431,431,431,431,431,431,431,430,428,428,427,426,425,424,424,423,423,0,0,0,0,0,386,386,386,386,386,386,386,386,386,386,386,386,385,0,0,452,451,451,451,450,448,447,445,445,444,443,443,444,444,444,444,443,442,440,438,437,435,0,0,0,0,0,0,0,0,0,0,0,0,0,0,0,435,435,433,430,429,429,429,430,435,438,0,446,448,449,451,454,456,461,463,465,468,470,472,475,476
286,286,286,286,286,286,286,286,286,287,287,289,290,291,292,293,293,293,293,293,293,293,293,293,0,0,294,294,294,0,0,298,301,0,0,306,307,307,307,306,306,305,304,304,0,0,0,0,0,0,0,0,311,311,312,314,314,314,314,315,315,316,316,317,0,0,0,0,321,321,321,321,321,321,321,321,321,322,322,322,322,323,323,323,323,323,0,423,423,423,423,423,423,423,423,424,424,425,425,426,426,426,426,0,0,0,0,0,0,392,0,391,391,391,391,390,391,390,390,390,390,390,390,390,390,0,0,0,0,0,0,444,0,0,438,437,436,435,435,435,435,435,435,435,435,435,434,434,434,434,433,433,432,431,431,431,431,431,431,431,431,432,433,434,435,436,437,438,438,438,438,438,436,433,428,0,0,0,405,403,401,401,401,400,400,400,400,400,400,399,399,399,399,399,399,399,399,399,400,400,400,401,401,401,401,400,401,401,401,0,0,0,405,406,409,0,0,0,428,430,431,431,432,432,432,431,431,431,430,428,428,427,426,425,424,423,423,0,0,0,0,0,0,0,389,388,388,388,387,387,387,388,387,387,387,387,0,0,450,450,450,450,449,446,445,444,443,442,442,442,442,442,442,441,441,440,438,435,433,431,431,430,0,0,0,0,428,429,428,0,428,429,0,0,0,0,0,430,427,426,426,427,428,0,0,444,445,446,448,450,452,455,459,462,464,467,469,471,473,474
286,286,286,286,286,286,286,286,286,286,287,288,289,290,292,292,293,293,293,293,293,293,293,293,294,294,294,294,294,0,0,0,0,0,0,0,0,0,0,0,0,0,0,0,0,0,0,0,0,0,0,0,309,310,311,312,313,314,314,315,315,315,316,316,0,0,0,0,321,321,321,321,321,321,321,321,322,322,322,322,323,323,323,323,324,324,324,421,421,421,420,420,420,420,421,421,422,423,423,424,425,425,425,0,0,0,0,0,0,0,0,0,0,391,391,390,391,390,390,390,390,390,390,390,390,390,0,0,0,0,0,444,0,440,438,437,435,435,435,435,435,435,434,434,434,434,434,434,433,433,432,432,431,431,430,430,430,430,431,431,431,433,433,434,435,436,437,438,438,438,438,437,435,432,427,0,0,0,406,404,402,402,401,401,401,400,400,400,400,399,399,399,399,399,399,399,400,400,401,401,401,402,403,403,402,402,403,402,402,404,404,405,406,0,410,0,420,423,430,431,431,432,433,433,432,432,431,431,430,428,428,427,426,424,423,422,421,421,0,0,0,0,0,396,0,0,392,391,390,390,389,388,388,388,0,0,0,449,449,449,449,449,447,445,444,443,441,441,440,440,440,440,439,438,437,436,434,431,429,428,427,426,425,424,424,424,0,0,0,0,0,0,0,0,0,0,0,0,0,422,422,423,424,0,0,438,444,446,446,450,451,454,458,460,462,465,467,468,469,471
286,286,286,286,286,286,286,286,286,286,287,0,0,0,292,292,293,293,293,293,293,293,293,293,293,294,294,294,0,0,0,0,0,0,0,0,0,0,0,0,0,0,0,0,0,0,0,0,0,0,0,0,0,310,311,311,313,313,314,315,315,315,315,316,316,316,318,319,320,320,321,321,321,321,322,322,322,322,322,323,323,324,324,324,324,325,325,325,419,420,419,419,420,419,420,420,421,422,422,423,424,424,425,0,0,0,0,0,0,0,392,0,0,391,391,390,390,390,390,390,390,389,390,390,390,389,389,0,0,0,0,0,0,439,437,436,435,435,435,435,435,434,434,434,434,434,433,433,433,432,431,431,431,430,430,430,430,430,431,431,431,433,434,434,435,436,437,437,437,437,436,436,434,431,426,421,416,410,406,404,403,403,402,402,401,401,401,400,400,399,399,399,399,399,400,400,401,401,402,403,403,404,404,405,404,404,404,404,404,405,406,407,408,0,413,0,0,425,431,432,432,433,433,433,432,432,431,431,430,428,427,426,425,425,422,421,420,419,0,0,0,403,401,400,399,0,0,393,392,391,390,389,0,0,0,0,0,448,448,448,448,448,446,444,443,442,440,440,439,439,438,437,437,435,434,432,431,429,426,421,420,419,418,416,416,415,415,414,413,412,412,411,411,411,0,414,415,416,416,416,416,417,418,423,427,431,439,442,444,449,451,453,457,460,462,465,466,467,468,470
286,286,286,286,286,286,286,286,286,287,287,0,0,0,0,0,0,293,293,293,293,293,293,293,294,294,294,294,0,0,0,0,0,0,0,0,0,0,0,0,0,0,0,0,0,0,0,0,0,0,0,0,0,0,0,311,313,314,315,315,316,316,316,316,316,316,318,319,319,319,320,321,321,322,322,322,322,323,323,323,324,324,324,325,325,325,325,325,418,419,419,418,418,418,419,419,420,420,421,422,423,423,424,0,0,0,0,0,0,0,392,392,391,391,391,390,390,390,390,390,389,389,389,390,389,389,389,389,0,0,0,0,439,437,435,435,434,434,434,433,433,433,433,432,433,432,432,431,431,430,429,428,428,428,428,429,429,429,430,431,431,432,433,434,435,436,436,436,436,436,435,435,432,430,0,421,0,413,409,407,404,404,404,403,403,402,402,401,401,400,400,400,400,400,400,400,401,402,403,403,404,405,405,405,405,405,405,405,405,406,0,407,408,411,414,420,0,426,432,432,433,433,434,433,433,432,431,431,430,428,427,426,425,424,421,420,418,417,0,0,0,0,404,404,403,400,398,396,394,393,391,390,0,0,0,443,444,445,445,446,446,445,444,443,440,439,438,437,436,434,432,432,434,429,427,426,425,423,422,419,419,418,417,415,415,415,414,413,413,0,0,411,410,410,411,412,413,414,414,414,415,415,417,418,425,428,432,439,441,447,450,451,456,459,461,464,465,466,467,468
286,286,286,286,286,286,286,286,286,287,287,287,289,289,0,0,0,0,293,293,293,293,293,293,293,0,0,0,0,0,0,0,0,0,0,0,0,0,0,0,0,0,0,0,0,0,0,0,0,0,0,0,0,0,0,0,0,0,0,316,316,316,316,316,317,317,318,318,319,319,320,320,321,322,322,322,323,323,323,324,324,324,325,325,325,325,325,325,418,418,418,417,417,417,418,418,419,419,420,421,422,422,0,0,0,0,0,0,0,0,392,392,391,391,391,390,390,390,390,389,389,389,389,389,389,389,388,388,388,389,389,391,0,428,427,432,432,433,433,433,432,432,432,432,432,432,431,431,430,429,428,428,428,428,428,428,428,429,430,430,431,431,433,434,434,435,436,436,435,435,435,434,432,429,0,421,0,414,410,408,405,405,404,404,403,403,403,402,401,401,401,400,400,400,400,401,401,402,403,403,404,405,405,406,405,405,405,406,406,408,0,411,412,414,417,0,0,427,432,432,433,434,434,434,433,432,431,430,429,427,426,425,424,423,419,418,417,415,413,411,408,407,407,406,404,402,400,401,396,394,393,0,0,436,439,440,441,443,444,444,444,444,443,442,440,438,436,435,433,431,430,429,428,428,425,424,423,422,420,418,418,417,416,415,415,414,413,412,411,410,410,410,410,410,410,411,412,413,413,413,413,415,416,418,0,0,432,434,0,440,446,449,452,459,462,463,465,466,467,467
286,286,286,286,286,0,0,0,0,0,0,0,0,0,0,0,0,0,0,293,293,293,293,293,293,0,0,0,0,0,0,0,0,0,0,0,0,0,0,0,0,0,0,0,0,0,0,0,0,0,0,0,0,0,0,0,0,0,0,0,316,316,316,317,317,317,318,318,319,319,320,321,321,322,322,323,323,324,324,324,325,325,325,325,325,325,325,325,416,416,416,416,416,416,416,416,417,418,418,418,420,421,0,0,0,0,0,0,0,0,393,392,391,391,391,390,390,390,389,389,389,389,389,389,389,389,388,388,388,388,388,389,391,400,420,425,429,430,432,432,431,431,431,431,431,431,431,430,429,428,427,427,427,427,427,427,428,428,429,430,430,431,432,433,434,435,435,435,435,434,434,433,431,428,0,0,0,415,411,410,406,406,405,405,404,403,403,403,402,402,401,401,401,401,401,401,401,403,403,404,404,405,406,406,406,406,406,407,407,410,411,412,415,417,419,0,427,428,433,433,433,434,434,433,433,431,431,430,428,426,425,424,423,422,419,0,416,414,413,410,408,408,408,408,407,406,405,0,0,402,0,0,0,435,437,0,440,442,443,442,443,443,442,441,439,437,435,434,0,429,428,427,427,426,424,422,422,420,419,418,416,416,415,415,414,413,412,412,410,410,410,409,409,410,410,411,411,412,413,413,413,414,415,417,421,423,0,0,432,435,434,450,451,457,460,461,462,464,465,465
286,286,286,286,0,0,0,0,0,0,0,0,0,0,0,0,0,0,293,293,293,293,293,293,0,0,0,0,0,0,0,0,0,0,0,0,0,0,0,0,0,0,0,0,0,0,0,0,0,0,0,0,0,0,0,0,0,0,317,316,317,316,317,317,317,317,318,319,319,319,320,321,322,322,323,323,324,324,324,325,325,325,326,326,326,326,326,326,0,415,416,416,415,415,415,415,416,417,417,418,419,420,420,0,0,0,0,0,0,0,393,392,391,391,391,390,390,390,390,389,389,389,389,388,388,388,388,388,388,388,388,388,389,390,395,0,424,426,428,429,429,430,430,431,431,431,430,429,428,427,427,426,426,426,426,427,427,428,428,429,429,430,432,433,433,434,434,434,433,433,432,431,431,427,425,422,419,417,415,409,407,407,406,405,405,404,404,403,403,403,402,402,401,401,403,403,403,403,404,404,405,406,407,407,407,408,409,411,414,416,416,0,0,421,423,0,428,430,433,433,433,434,434,433,432,431,430,429,428,426,425,424,423,422,419,417,415,414,412,411,410,409,409,409,409,408,0,0,0,0,0,0,0,432,436,0,439,440,441,441,442,442,440,440,437,436,434,432,0,428,426,425,424,424,422,421,420,419,418,416,415,414,413,413,411,410,410,409,408,408,408,408,408,408,409,410,411,411,412,412,412,412,412,413,414,416,417,419,423,426,429,0,451,456,459,459,461,462,463,464
0,287,286,286,0,0,0,0,0,0,0,0,0,0,0,0,0,0,0,0,0,293,293,294,294,0,0,0,0,0,0,0,0,0,0,0,0,0,0,0,0,0,0,0,0,0,0,0,0,0,0,0,0,0,0,0,0,0,317,317,317,317,317,318,318,318,319,319,320,320,321,322,322,323,324,324,324,325,325,325,325,326,326,326,326,327,327,327,0,0,415,415,414,414,414,414,415,416,416,416,417,418,419,0,0,0,0,0,0,0,392,392,392,391,391,390,390,390,389,389,389,388,388,388,388,388,387,387,387,387,387,387,387,389,390,390,392,397,420,422,423,425,426,428,428,428,428,428,427,426,425,425,425,425,425,425,426,426,427,428,428,429,431,431,432,433,433,433,433,432,431,431,430,427,425,423,421,418,416,411,410,408,407,406,405,405,405,405,404,404,404,404,404,403,403,403,403,404,404,405,405,406,407,408,409,411,412,414,418,0,420,422,423,424,426,427,428,430,433,433,433,433,433,432,432,431,430,429,428,426,425,424,423,422,419,417,415,414,412,411,410,410,410,410,411,411,0,0,0,0,0,0,430,431,433,435,435,437,438,438,439,439,438,437,436,433,432,429,427,424,422,420,420,420,419,418,417,417,416,415,414,413,412,411,410,409,409,408,408,407,407,407,408,408,409,409,410,411,411,411,411,412,411,411,412,413,414,415,417,418,423,426,0,0,457,458,459,461,462,463
0,0,0,0,0,0,0,0,0,0,0,0,0,0,0,0,0,0,0,0,0,0,0,0,0,0,0,0,0,0,0,0,0,0,0,0,0,0,0,0,0,0,0,0,0,0,0,0,0,0,0,0,0,0,0,0,0,0,0,0,0,318,318,318,318,319,319,320,320,321,321,322,323,324,324,324,325,325,325,326,326,326,326,326,327,327,327,327,0,0,0,0,0,0,0,0,414,415,415,416,418,418,0,0,0,0,0,0,0,392,392,392,392,391,391,390,390,390,390,389,389,388,388,387,387,387,387,386,386,386,385,385,385,385,384,389,384,390,396,420,420,424,425,427,427,428,427,427,426,426,425,424,424,424,424,425,425,425,427,427,428,429,430,431,432,432,433,433,433,431,431,430,429,427,426,424,422,419,417,412,410,409,408,407,406,405,405,405,405,405,405,405,404,404,404,404,404,405,405,405,406,407,408,409,412,414,418,420,422,423,423,424,425,426,427,428,429,430,432,432,432,432,431,431,430,429,428,428,427,426,425,424,423,422,419,418,416,414,413,411,411,411,411,412,413,413,413,416,417,420,423,428,429,430,432,433,434,435,436,437,437,438,437,437,435,431,429,427,425,423,420,418,418,418,417,416,416,416,415,415,413,412,411,411,409,408,408,407,407,406,406,407,407,407,408,408,409,410,410,410,411,411,411,411,411,412,412,413,413,414,414,416,418,0,452,455,0,458,460,462
0,0,0,0,0,0,0,0,0,0,0,0,0,0,0,0,0,0,0,0,0,0,0,0,0,0,0,0,0,0,0,0,0,0,0,0,0,0,0,0,0,0,0,0,0,0,0,0,0,0,0,0,0,0,0,0,0,0,0,0,318,318,318,319,319,319,320,320,321,321,322,323,323,324,325,325,325,326,326,326,326,326,327,327,327,327,328,328,328,0,0,0,0,0,0,0,410,411,412,413,415,0,0,0,0,0,0,392,392,392,392,392,392,391,391,391,390,390,390,389,389,388,388,387,387,387,386,385,385,385,385,384,384,383,383,383,383,383,389,400,0,421,424,426,426,427,427,426,425,425,424,424,424,424,424,424,425,425,425,427,427,428,430,431,431,432,432,432,432,431,431,430,429,427,426,424,422,420,418,413,411,409,408,407,406,406,405,405,405,405,405,405,405,405,405,405,405,405,405,406,406,408,408,410,415,418,422,424,425,426,426,427,427,427,427,428,427,428,429,429,429,430,430,429,429,428,428,427,427,426,424,424,423,423,420,418,417,416,415,414,414,414,414,415,416,417,417,418,422,424,425,428,429,430,431,432,433,434,435,435,435,436,436,436,434,432,0,426,424,421,419,416,416,416,416,415,415,414,414,413,412,411,410,410,408,408,407,407,407,406,406,406,406,406,407,407,408,408,409,409,410,410,410,411,411,411,411,411,411,410,410,411,411,0,432,444,0,452,454,456
0,0,0,0,0,0,0,0,0,0,0,0,0,0,0,0,0,0,0,0,0,0,0,0,0,0,0,0,0,0,0,0,0,0,0,0,0,0,0,0,0,0,0,0,0,0,0,0,0,0,0,0,0,0,0,0,0,0,0,0,319,319,319,320,320,320,321,321,321,322,322,323,323,324,325,325,326,326,326,327,327,327,327,327,328,328,328,329,329,329,0,0,0,0,0,407,408,409,410,411,413,0,0,0,0,0,0,0,392,392,392,392,392,392,391,390,390,390,390,389,388,388,388,387,387,386,386,385,384,384,383,383,382,382,382,381,381,381,382,386,400,0,422,0,426,426,426,426,425,425,424,424,423,423,424,424,424,425,425,426,427,428,429,430,431,431,431,431,431,430,430,428,428,426,425,423,421,420,418,413,411,410,408,407,406,406,405,405,405,405,405,405,405,405,405,405,406,406,406,407,407,408,409,411,417,425,428,429,430,430,430,429,428,427,426,426,426,427,427,428,428,428,428,428,428,427,427,426,426,425,424,424,423,423,420,419,418,417,416,416,416,416,416,416,418,418,419,421,422,424,425,428,428,429,430,431,431,432,433,434,434,435,435,435,433,429,427,425,423,419,417,415,414,414,413,413,413,413,413,412,410,409,409,408,407,407,406,406,406,405,405,405,405,405,405,405,405,406,406,407,407,408,408,409,409,409,409,409,409,409,409,409,410,0,420,428,0,0,452,453
0,0,0,0,0,0,0,0,0,0,0,0,0,0,0,0,0,0,0,0,0,0,0,0,0,0,0,0,0,0,0,0,0,0,0,0,0,0,0,0,0,0,0,0,0,0,0,0,0,0,0,0,0,0,0,0,0,0,0,0,320,320,320,320,321,321,322,322,322,323,323,323,324,325,325,326,326,326,327,327,327,327,327,327,328,328,329,329,329,330,0,0,0,0,0,405,406,407,408,410,411,0,414,0,0,0,0,0,0,392,392,392,392,392,391,391,390,390,389,389,388,388,388,387,386,386,385,385,383,383,383,382,381,381,380,380,380,381,381,381,395,402,423,424,423,423,422,422,422,422,422,422,422,422,422,423,424,424,425,426,427,428,429,430,430,431,431,431,431,430,429,428,427,426,423,422,421,419,417,414,412,410,409,408,407,406,406,406,406,406,406,406,406,406,406,406,406,406,407,407,407,408,410,412,0,423,431,431,432,431,431,430,428,426,425,425,425,425,425,426,426,427,427,427,427,426,426,426,425,425,424,424,423,423,421,420,419,418,418,417,417,417,417,418,419,419,419,421,423,424,425,428,428,429,429,429,430,430,431,431,431,432,433,433,431,429,425,423,420,417,415,413,411,410,410,410,410,410,410,409,409,408,408,407,407,406,406,406,405,404,404,404,404,404,0,404,404,404,405,405,405,406,407,408,408,408,408,408,408,408,408,408,409,410,0,423,440,446,449,450
0,0,0,0,0,0,0,0,0,0,0,0,0,0,0,0,0,0,0,0,0,0,0,0,0,0,0,0,0,0,0,0,0,0,0,0,0,0,0,0,0,0,0,0,0,0,0,0,0,0,0,0,0,0,0,0,0,0,0,0,320,320,321,321,321,322,322,322,323,323,323,324,324,325,325,325,326,326,327,327,327,327,327,328,328,329,329,330,330,330,0,0,0,0,403,403,404,405,407,0,0,0,0,0,0,0,0,393,393,392,392,392,392,392,391,391,390,390,389,388,388,388,387,386,386,385,385,384,383,382,382,382,381,380,380,380,380,381,381,381,0,0,0,0,0,0,420,420,420,420,420,420,420,421,421,422,423,424,425,426,427,428,429,429,430,430,430,431,430,429,428,428,427,426,423,422,420,418,417,413,412,410,409,408,407,406,406,406,405,406,406,406,407,407,407,407,407,407,407,407,407,409,410,414,0,0,0,435,434,432,431,430,428,426,424,423,423,423,423,424,424,425,424,425,425,425,425,425,425,425,424,423,423,422,421,420,420,419,419,418,418,418,418,419,419,420,420,422,423,425,425,427,428,428,428,428,429,429,430,430,431,431,431,432,430,428,426,421,419,416,414,412,410,410,409,409,409,409,409,409,408,408,407,406,406,405,406,406,405,404,404,404,403,403,402,402,402,402,403,404,404,405,406,407,407,407,407,407,407,407,407,407,408,0,0,428,435,440,447,449
0,0,0,0,0,0,0,0,0,0,0,0,0,0,0,0,0,0,0,0,0,0,0,0,0,0,0,0,0,0,0,0,0,0,0,0,0,0,0,0,0,0,0,0,0,0,0,0,0,0,0,0,0,0,0,0,0,0,0,0,0,0,0,321,322,322,323,323,323,324,324,324,324,325,325,326,326,326,327,327,327,327,328,328,329,329,330,330,330,330,0,0,0,399,399,400,401,402,403,407,0,0,0,0,0,0,0,0,397,0,393,392,392,392,0,392,0,0,0,390,389,389,388,387,386,385,385,384,383,382,382,381,381,381,380,380,380,380,380,381,0,0,0,0,0,0,0,419,419,419,418,418,418,419,419,421,422,423,423,425,427,428,428,429,429,429,429,429,429,428,427,427,426,425,423,421,419,418,416,413,412,410,409,408,407,406,406,406,406,406,406,407,407,407,407,407,407,407,407,407,408,410,411,0,424,0,0,435,434,431,430,428,426,424,421,420,420,420,420,421,421,422,423,424,424,425,425,425,425,424,423,423,422,422,421,420,420,420,420,420,420,420,420,420,420,421,421,423,423,424,425,426,427,427,427,428,428,428,428,429,429,430,430,430,428,427,422,420,418,415,413,412,409,409,408,408,408,408,408,408,407,407,406,405,405,405,405,405,405,404,404,404,403,402,401,401,401,401,401,402,403,404,405,405,406,407,407,407,407,407,405,405,405,406,0,0,0,432,438,445
0,0,0,0,0,0,0,0,0,0,0,0,0,0,0,0,0,0,0,0,0,0,0,0,0,0,0,0,0,0,0,0,0,0,0,0,0,0,0,0,0,0,0,0,0,0,0,0,0,0,0,0,0,0,0,0,320,320,320,320,321,321,322,322,322,323,323,323,324,324,324,324,325,325,326,326,327,327,327,327,328,328,328,328,329,330,330,331,331,331,0,0,398,398,398,399,400,400,401,403,405,406,410,0,0,0,0,0,398,0,393,392,0,0,0,0,0,0,0,0,392,391,389,387,387,386,385,384,383,383,382,382,381,381,381,380,380,380,380,380,381,0,0,0,0,0,418,418,418,417,417,417,417,417,417,418,419,420,422,424,425,426,428,427,427,427,427,427,427,426,425,425,424,423,421,420,418,417,416,413,412,410,409,408,407,407,406,406,406,406,406,406,407,407,407,407,407,408,408,409,0,0,0,0,0,0,0,432,431,429,428,426,424,422,420,419,419,419,419,420,420,421,422,423,423,424,424,424,424,424,423,422,422,421,420,420,420,420,420,420,420,420,420,420,421,421,421,422,423,423,424,425,426,426,426,426,427,427,427,428,428,428,428,428,426,424,422,418,416,414,412,411,408,408,408,408,408,407,407,407,407,405,404,404,404,404,405,405,405,405,404,404,403,402,400,399,399,399,399,401,401,402,403,404,405,405,405,405,405,405,405,405,404,404,405,0,0,0,434,443
0,0,0,0,0,0,0,0,0,0,0,0,0,0,0,0,0,0,0,0,0,0,0,0,0,0,0,0,0,0,0,0,0,0,0,0,0,0,0,0,0,0,0,0,0,0,0,0,0,0,0,0,0,0,0,0,0,320,321,321,322,322,323,323,324,324,324,324,325,325,325,325,326,326,326,327,327,327,327,327,328,328,328,329,330,330,331,331,331,332,332,0,397,397,397,398,398,398,399,401,402,403,407,0,0,0,0,0,401,0,0,0,0,0,0,0,0,0,0,0,0,0,0,389,387,386,385,385,383,383,383,382,381,381,381,381,380,381,381,382,394,0,416,417,417,416,416,415,415,415,414,413,413,413,413,413,415,416,417,418,421,423,425,426,426,426,426,426,425,425,424,423,423,422,420,419,417,416,415,413,412,411,410,409,408,407,407,407,406,406,407,407,407,407,408,408,408,409,409,409,410,0,0,418,0,0,426,427,427,427,425,424,423,421,419,418,418,418,418,418,420,420,421,422,423,423,424,424,424,423,422,422,421,420,420,420,420,420,420,420,420,420,420,420,420,420,421,422,422,423,423,423,423,424,424,424,424,425,425,425,426,426,425,424,422,420,420,415,413,412,410,409,408,407,407,407,407,405,405,405,405,404,404,404,404,404,405,406,406,405,405,404,403,402,400,399,399,399,398,400,400,401,402,403,404,404,404,404,404,405,404,404,404,403,404,0,0,0,432,0
0,0,0,0,0,0,0,0,0,0,0,0,0,0,0,0,0,0,0,0,0,0,0,0,0,0,0,0,0,0,0,0,0,0,0,0,0,0,0,0,0,0,0,0,0,0,0,0,0,0,0,0,0,0,0,0,0,320,320,0,0,0,323,324,324,324,325,325,325,325,326,326,326,326,327,327,327,328,328,328,328,329,329,329,330,331,331,331,332,332,332,396,396,396,396,397,397,397,398,399,400,401,405,406,412,0,0,0,0,0,0,0,0,0,0,0,405,401,403,402,401,399,0,0,390,388,387,386,384,383,383,383,382,385,385,386,388,391,394,0,0,0,416,417,416,416,416,415,414,413,413,412,411,411,411,411,411,413,414,416,419,421,422,425,425,425,425,425,424,424,423,422,422,421,419,418,417,416,415,413,412,411,410,410,408,408,407,407,407,407,407,407,408,408,408,408,409,410,410,410,0,413,414,417,0,0,0,0,0,0,423,422,421,420,419,418,418,418,418,418,419,420,419,420,421,422,423,423,423,422,421,421,420,420,419,419,419,419,420,420,420,420,420,420,420,420,420,420,420,420,420,422,422,422,423,423,423,423,423,424,425,424,423,421,420,418,416,415,412,410,410,408,408,407,407,407,406,405,404,404,404,403,403,403,404,404,405,406,406,406,405,404,403,403,400,399,398,398,398,399,399,400,401,402,403,403,404,404,404,404,404,404,403,403,402,407,0,0,428,441
0,0,0,0,0,0,0,0,0,0,0,0,0,0,0,0,0,0,0,0,0,0,0,0,0,0,0,0,0,0,0,0,0,0,0,0,0,0,0,0,0,0,0,0,0,0,0,0,0,0,0,0,0,0,0,0,0,320,0,0,0,323,323,324,324,325,325,325,325,326,326,326,326,327,327,327,328,328,328,328,329,329,330,330,331,331,331,332,332,332,333,395,395,394,394,394,395,395,395,396,398,399,400,0,0,0,0,0,0,0,0,408,0,0,0,0,407,405,404,404,403,402,399,0,395,394,392,390,389,388,388,387,388,388,389,390,394,397,0,0,414,416,416,416,416,415,415,413,413,412,411,411,410,410,409,409,410,411,412,413,416,418,420,423,423,424,423,423,423,423,422,421,420,420,419,417,416,416,415,413,412,411,411,410,409,409,408,408,408,408,408,408,408,409,409,410,410,411,411,412,413,414,415,416,418,418,419,420,420,420,419,419,418,418,418,417,417,417,416,416,417,418,418,419,420,421,422,422,422,422,421,420,420,419,419,419,419,419,419,420,420,420,419,419,419,419,419,419,419,419,420,420,421,421,421,422,422,422,422,423,423,423,422,419,418,416,415,413,410,410,409,408,407,407,406,406,405,404,403,403,403,402,402,402,403,404,405,406,406,406,405,405,404,403,400,399,398,397,397,397,398,398,399,401,402,402,403,403,403,404,404,403,402,401,400,401,406,0,433,431
0,0,0,0,0,0,0,0,0,0,0,0,0,0,0,0,0,0,0,0,0,0,0,0,0,0,0,0,0,0,0,0,0,0,0,0,0,0,0,0,0,0,0,0,0,0,0,0,0,0,0,0,0,0,0,0,0,0,0,0,0,322,324,324,324,325,325,325,326,326,327,327,327,328,328,329,329,329,329,330,330,330,331,331,331,332,332,333,333,333,0,0,394,394,394,393,394,394,394,394,396,397,398,0,0,0,0,0,410,410,409,409,409,408,408,407,406,405,405,405,404,402,401,400,398,0,0,393,392,392,391,391,392,392,0,0,0,0,0,410,412,416,416,416,415,415,414,414,412,411,410,410,408,408,408,408,408,409,410,411,414,416,416,418,420,420,420,420,420,420,419,418,418,418,417,416,415,415,414,413,413,412,411,411,410,409,409,408,408,408,409,409,409,410,410,410,411,412,412,413,414,414,415,416,416,416,416,417,417,418,417,417,417,417,417,416,416,416,416,416,416,416,417,417,418,420,420,421,421,421,420,420,419,419,419,418,418,418,419,419,419,419,419,418,418,418,418,418,418,418,418,419,420,420,420,420,421,421,421,421,422,421,420,0,416,415,413,411,409,409,408,408,407,406,405,405,404,403,402,402,401,401,401,401,402,403,405,405,406,406,405,405,404,403,400,399,397,396,395,395,395,396,397,397,399,400,401,402,402,403,403,402,401,400,400,399,402,0,0,0
0,0,0,0,0,0,0,0,0,0,0,0,0,0,0,0,0,0,0,0,0,0,0,0,0,0,0,0,0,0,0,0,0,0,0,0,0,0,0,0,0,0,0,0,0,0,0,0,0,0,0,0,0,0,0,0,0,0,0,0,0,324,0,325,325,325,325,326,326,327,327,328,328,328,329,329,330,330,330,330,331,331,331,332,332,332,333,333,333,333,333,0,393,393,393,393,393,393,393,393,395,395,0,0,0,0,0,0,410,410,409,409,408,408,407,406,406,405,405,405,404,403,402,402,401,400,399,0,396,396,395,0,0,403,404,401,403,405,410,412,413,416,416,415,415,414,413,412,410,409,408,408,406,406,406,405,405,405,407,407,409,412,413,415,418,418,418,418,418,418,417,417,416,416,415,414,414,413,413,413,412,412,411,411,410,410,409,409,410,410,410,410,410,410,410,411,411,412,412,413,413,414,414,414,415,415,415,415,415,415,415,416,416,416,416,416,416,416,415,415,415,416,416,416,417,418,419,420,420,420,420,420,420,419,419,418,418,418,418,418,418,418,418,418,417,418,417,417,417,417,418,417,418,418,418,418,418,418,419,419,419,418,417,416,413,412,410,409,408,408,408,407,407,405,404,403,402,401,399,399,399,400,400,401,402,403,405,405,405,405,405,405,404,403,400,398,397,395,394,393,394,394,395,397,398,399,400,401,401,402,402,401,400,400,399,397,398,0,0,0
0,0,0,0,0,0,0,0,0,0,0,0,0,0,0,0,0,0,0,0,0,0,0,0,0,0,0,0,0,0,0,0,0,0,0,0,0,0,0,0,0,0,0,0,0,0,0,0,0,0,0,0,0,0,0,0,0,0,0,0,0,0,0,325,325,0,325,326,327,327,328,328,328,329,330,330,330,330,331,331,331,331,332,332,332,333,333,333,334,334,334,0,393,392,392,392,392,392,392,392,393,393,391,392,0,0,405,0,407,407,407,407,407,406,406,405,405,404,404,404,404,403,403,402,402,401,400,400,399,399,399,399,405,407,410,412,413,415,415,416,416,416,416,415,414,413,412,411,409,408,407,407,406,405,404,404,404,405,405,406,407,410,412,413,416,416,416,416,416,416,416,415,415,414,414,413,413,412,412,412,411,411,411,411,410,410,410,410,410,410,410,410,410,410,410,410,411,411,412,413,413,413,414,414,414,414,414,414,415,415,414,415,415,415,415,415,415,415,415,415,415,415,414,414,415,416,417,418,419,420,419,419,419,419,419,418,418,418,418,417,417,417,417,416,416,416,416,416,416,416,416,416,417,417,417,417,418,418,418,418,418,417,416,415,412,411,410,409,408,408,408,407,407,405,404,403,401,400,398,398,398,398,399,401,402,403,405,405,405,405,405,405,404,403,399,398,396,394,393,392,392,393,393,394,396,397,398,400,400,401,401,401,400,399,398,395,394,394,0,0
0,0,0,0,0,0,0,0,0,0,0,0,0,0,0,0,0,0,0,0,0,0,0,0,0,0,0,0,0,0,0,0,0,0,0,0,0,0,0,0,0,0,0,0,0,0,0,0,0,0,0,0,0,0,0,0,0,0,0,0,0,0,0,0,0,0,0,0,326,327,328,328,329,329,330,330,331,331,331,331,332,332,332,332,333,333,333,334,334,334,334,0,392,392,391,391,391,391,390,390,390,390,391,391,392,0,400,0,405,406,407,407,407,406,405,405,404,404,404,404,404,403,403,403,404,404,404,404,404,405,407,408,409,412,414,415,416,417,417,416,416,416,415,415,413,412,411,410,408,407,406,405,405,404,403,403,403,404,404,405,407,409,410,411,414,415,415,415,415,415,415,414,414,413,413,413,412,412,411,411,411,410,410,410,410,409,409,409,409,410,410,410,409,409,410,410,410,411,411,411,411,412,412,411,411,411,411,411,412,412,412,412,412,412,412,413,413,413,413,413,412,412,413,413,414,415,415,416,418,419,419,419,419,419,419,418,418,418,417,417,416,416,416,415,415,415,415,415,415,416,416,416,416,416,417,417,417,417,417,417,417,416,416,414,412,411,410,409,409,408,408,407,407,405,404,402,400,399,397,397,397,397,398,400,402,403,404,405,405,405,405,405,404,403,399,397,394,393,392,391,391,391,391,392,394,396,397,398,400,400,400,400,398,397,395,394,392,392,391,391
0,0,0,0,0,0,0,0,0,0,0,0,0,0,0,0,0,0,0,0,0,0,0,0,0,0,0,0,0,0,0,0,0,0,0,0,0,0,0,0,0,0,0,0,0,0,0,0,0,0,0,0,0,0,0,0,0,0,0,0,0,0,322,323,324,0,0,0,0,327,328,328,329,330,330,330,331,331,331,332,332,332,332,333,333,333,334,334,334,334,0,0,0,391,391,391,390,390,390,390,389,390,390,390,390,0,0,0,402,404,405,405,405,405,405,404,404,404,403,403,403,403,403,403,403,404,405,406,407,408,410,411,412,415,416,416,417,417,417,416,416,415,415,413,411,411,410,409,407,406,405,404,404,403,403,402,402,403,404,404,405,407,408,409,410,411,412,412,412,412,412,412,412,412,411,411,411,411,410,410,409,409,409,409,408,408,408,408,408,409,409,408,408,408,409,409,409,410,410,410,411,411,411,410,410,410,410,410,410,410,410,410,410,411,411,411,411,412,412,412,411,411,411,411,411,413,413,415,417,418,419,419,419,419,419,418,418,417,417,416,416,416,416,415,415,415,415,415,415,415,415,415,416,416,416,416,416,416,416,416,416,416,415,414,412,411,410,410,409,409,408,408,407,405,404,402,0,398,397,396,396,397,397,400,402,403,404,405,405,405,405,404,403,401,398,395,393,392,391,390,389,389,389,390,391,393,394,396,398,398,399,398,397,396,394,393,391,391,391,391
0,0,0,0,0,0,0,0,0,0,0,0,0,0,0,0,0,0,0,0,0,0,0,0,0,0,0,0,0,0,0,0,0,0,0,0,0,0,0,0,0,0,0,0,0,0,0,0,0,0,0,0,0,0,0,0,0,0,0,0,0,0,321,322,324,0,324,325,326,0,328,328,329,330,330,331,331,331,332,332,332,332,332,333,333,333,334,334,335,335,335,0,0,391,391,391,390,390,389,389,389,389,389,390,390,393,0,0,401,403,404,405,405,404,404,404,404,403,403,403,403,403,403,403,404,405,407,408,410,413,414,415,416,417,417,417,417,417,417,416,414,413,412,411,408,408,407,406,405,403,403,402,401,401,401,401,401,401,402,403,404,405,407,408,409,410,411,411,411,411,411,411,411,411,411,410,410,410,410,409,409,408,409,408,408,408,408,408,408,408,408,408,408,408,408,409,409,409,410,410,410,410,409,409,409,409,409,409,409,409,409,409,409,409,409,409,410,411,411,411,410,410,410,409,410,410,411,413,416,417,418,419,419,419,418,418,417,417,416,416,416,416,415,415,414,414,414,414,414,414,414,415,415,415,415,415,415,414,415,415,415,415,414,413,412,411,411,410,410,410,409,408,408,405,403,401,0,397,396,395,395,0,396,400,402,403,404,405,405,405,404,403,402,400,399,394,393,392,391,390,389,389,389,390,391,393,393,394,396,397,397,397,396,395,394,392,391,391,391,390
0,0,0,0,0,0,0,0,0,0,0,0,0,0,0,0,0,0,0,0,0,0,0,0,0,0,0,0,0,0,0,0,0,0,0,0,0,0,0,0,0,0,0,0,0,0,0,0,0,0,0,0,0,0,0,0,0,0,0,315,318,319,321,322,323,324,324,325,326,327,328,329,330,330,331,331,331,331,332,332,332,332,332,333,333,334,334,335,335,335,0,0,0,391,391,390,390,389,389,389,388,387,387,386,385,384,384,385,388,400,401,403,403,404,403,403,403,403,403,403,403,403,404,404,405,406,409,411,413,416,417,420,420,420,420,419,418,418,417,415,413,412,411,410,408,406,405,404,404,402,401,401,400,400,400,400,400,401,402,403,403,404,406,407,408,409,409,409,409,409,410,410,410,410,410,409,410,410,409,409,408,408,408,408,407,407,408,408,407,408,408,407,407,407,408,408,408,408,409,409,409,409,408,408,408,408,408,408,407,407,407,407,407,407,407,408,408,409,410,410,408,407,407,406,406,406,408,409,411,415,416,418,418,418,418,418,417,416,416,416,415,415,415,415,413,413,413,413,413,413,413,413,414,414,414,414,414,413,414,414,414,414,413,412,412,411,411,411,410,410,410,409,408,405,403,401,399,0,0,395,394,395,395,0,0,404,0,0,404,0,0,0,0,0,0,394,393,392,391,391,390,390,390,390,391,392,393,394,395,396,396,396,395,394,393,392,391,391,390,390
0,0,0,0,0,0,0,0,0,0,0,0,0,0,0,0,0,0,0,0,0,0,0,0,0,0,0,0,0,0,0,0,0,0,0,0,0,0,0,0,0,0,0,0,0,0,0,0,0,0,0,0,0,0,0,0,0,0,316,317,318,319,321,322,323,323,324,325,325,327,328,328,330,330,330,331,331,331,331,332,332,332,332,333,333,334,334,335,335,336,0,0,0,0,391,390,390,389,389,388,387,387,386,385,383,383,382,383,385,390,400,402,403,403,403,402,402,402,403,403,403,404,405,406,407,409,413,416,420,421,422,423,422,422,421,419,419,418,416,415,413,411,410,408,407,405,404,403,403,401,401,400,400,399,399,399,399,400,401,402,403,404,405,406,407,408,408,408,408,408,408,408,408,409,408,408,408,408,408,408,407,407,407,407,407,407,407,407,407,407,407,406,406,406,406,406,406,406,407,407,407,407,406,406,406,405,405,405,405,405,405,405,405,404,405,405,405,407,407,407,407,406,405,405,405,405,406,407,409,413,415,417,418,418,418,417,416,416,416,415,415,415,415,414,413,413,412,412,412,412,413,412,413,413,413,413,413,413,413,413,413,413,412,411,411,411,411,410,410,410,410,410,408,406,403,401,399,397,397,395,395,0,0,0,0,0,0,0,0,0,0,0,0,0,397,394,393,393,392,391,390,390,390,391,391,392,392,393,393,394,395,394,394,393,392,392,391,390,390,390
0,0,0,0,0,0,0,0,0,0,0,0,0,0,0,0,0,0,0,0,0,0,0,0,0,0,0,0,0,0,0,0,0,0,0,0,0,0,0,0,0,0,0,0,0,0,0,0,0,0,0,0,0,0,0,0,0,0,317,317,318,0,320,322,322,323,324,324,325,0,0,328,328,330,330,331,331,331,331,332,332,332,332,333,333,334,334,335,336,336,338,338,0,0,0,0,0,0,388,388,386,0,0,0,0,0,0,0,0,0,0,0,0,0,0,402,402,402,402,403,404,404,406,407,408,413,416,418,422,423,424,423,423,422,421,420,418,417,416,414,411,410,408,407,406,403,403,402,401,401,400,399,399,398,398,398,399,399,401,401,402,403,404,404,405,405,405,405,405,405,405,406,406,406,406,406,406,406,406,405,405,406,406,406,406,406,406,406,406,406,406,405,405,405,405,405,405,405,405,405,405,405,405,405,405,405,405,404,404,404,404,404,404,403,404,404,404,405,406,407,407,405,405,404,404,404,405,406,407,411,413,415,417,417,417,417,416,416,416,415,415,415,414,414,413,412,412,411,411,411,411,411,412,412,412,412,412,412,412,412,412,412,411,411,411,411,410,410,411,411,411,410,409,406,404,401,399,398,397,396,0,0,0,0,0,0,0,0,0,0,0,0,0,399,397,395,394,393,392,392,391,391,392,391,392,392,392,392,392,392,393,393,393,393,392,392,391,390,390,390
0,0,0,0,0,0,0,0,0,0,0,0,0,0,0,0,0,0,0,0,0,0,0,0,0,0,0,0,0,0,0,0,0,0,0,0,0,0,0,0,0,0,0,0,0,0,0,0,0,0,0,0,0,0,0,0,0,0,317,318,318,319,320,321,322,323,323,0,0,326,326,327,328,329,330,331,331,331,331,332,332,332,332,333,333,334,335,336,336,337,338,338,339,339,0,0,0,0,0,0,0,0,0,382,381,380,379,379,0,379,0,0,0,0,0,0,401,401,402,403,403,404,407,408,410,416,418,421,423,425,425,425,423,423,421,418,417,415,413,411,410,407,405,404,403,401,400,399,399,398,397,397,396,397,397,397,398,398,399,401,401,402,403,404,404,404,404,405,405,405,405,405,405,405,404,404,404,404,405,405,405,405,405,405,405,405,406,405,405,405,405,405,404,404,404,404,404,404,404,404,404,404,404,404,404,404,404,404,404,403,403,403,402,402,402,402,403,403,405,0,0,403,403,403,402,403,403,404,405,409,410,412,414,416,416,416,416,416,415,415,414,414,414,413,412,411,411,411,410,410,410,411,409,409,409,409,409,409,409,409,409,409,409,409,410,410,410,410,410,410,410,410,409,405,404,401,400,398,397,397,397,397,0,0,0,0,0,0,0,0,0,0,0,400,398,396,395,395,395,394,393,394,394,393,393,392,392,391,391,392,392,392,392,392,392,392,391,390,390,389
0,0,0,0,0,0,0,0,0,0,0,0,0,0,0,0,0,0,0,0,0,0,0,0,0,0,0,0,0,0,0,0,0,0,0,0,0,0,0,0,0,0,0,0,0,0,0,0,0,0,0,0,0,0,319,319,318,318,318,318,318,0,320,321,322,322,323,324,0,325,326,327,328,329,330,331,331,332,332,332,332,332,333,333,333,334,335,336,337,337,338,339,339,339,0,0,0,0,0,0,0,0,381,381,380,380,0,379,0,379,379,0,0,0,399,400,401,401,402,403,404,405,407,409,411,418,420,422,425,425,425,424,423,421,420,417,415,413,411,410,408,405,404,403,401,401,399,398,398,397,395,395,395,395,395,396,397,398,399,400,401,402,403,403,404,404,404,404,404,404,404,403,403,404,403,403,403,403,403,404,404,404,404,405,405,405,405,405,405,404,404,404,403,403,403,403,403,403,403,403,403,404,404,404,404,404,404,404,403,403,402,402,401,401,401,401,402,402,403,403,403,400,400,399,399,399,399,400,401,403,405,407,408,411,412,413,413,414,414,413,413,412,412,411,410,409,409,408,408,408,408,408,408,408,408,408,408,408,408,408,408,408,408,408,409,409,409,409,409,409,410,409,408,405,404,402,400,399,398,398,397,398,0,0,0,0,0,0,0,406,404,403,402,400,399,397,396,396,395,395,395,395,394,394,393,392,392,391,391,391,391,392,392,392,392,392,391,390,390,389
0,0,0,0,0,0,0,0,0,0,0,0,0,0,0,0,0,0,0,0,0,0,0,0,0,0,0,0,0,0,0,0,0,0,0,0,0,0,0,0,0,0,0,0,0,0,0,0,0,0,0,0,0,0,320,319,319,319,318,318,318,319,319,321,322,322,323,323,324,324,325,326,327,329,330,331,332,332,332,332,332,332,332,333,334,334,335,336,337,338,339,339,340,340,341,0,0,0,0,0,0,381,381,381,380,379,379,379,379,379,381,383,0,0,398,399,400,400,401,403,403,404,407,409,412,419,423,425,425,425,425,423,421,419,417,416,413,411,409,408,406,403,402,401,400,400,398,397,397,396,395,394,394,394,394,395,396,397,398,400,401,402,403,403,403,403,403,403,403,403,403,403,403,403,402,403,402,402,403,403,403,403,404,404,404,404,404,404,404,403,402,401,401,400,400,400,399,400,400,401,401,402,403,404,404,404,404,404,403,402,401,400,400,400,399,399,400,400,401,401,401,0,0,0,398,398,398,399,400,401,403,405,407,409,410,411,412,412,412,412,411,411,410,410,409,408,407,407,407,407,407,407,406,407,0,407,407,407,407,407,407,407,407,408,408,408,408,408,408,408,408,408,407,405,404,402,400,399,398,398,398,398,399,0,0,406,407,407,407,406,404,404,403,401,399,397,397,396,396,396,396,396,395,394,393,392,391,391,390,390,391,391,392,392,392,391,390,389,389,388
0,0,0,0,0,0,0,0,0,0,0,0,0,0,0,0,0,0,0,0,0,0,0,0,0,0,0,0,0,0,0,0,0,0,0,0,0,0,0,0,0,0,0,0,0,0,0,0,0,0,0,0,0,320,320,320,319,319,318,319,319,319,319,320,321,322,323,323,324,324,325,326,327,328,329,330,331,332,333,333,333,333,333,333,334,335,336,337,338,339,340,341,341,341,341,0,0,0,0,0,0,381,380,380,380,380,379,379,379,380,381,383,384,392,394,397,399,400,401,402,403,403,0,0,0,0,421,423,423,423,422,419,418,416,415,413,410,409,407,406,404,402,401,400,399,399,397,396,395,394,394,392,392,393,393,394,395,397,398,400,401,401,402,403,403,403,403,403,402,402,401,401,401,401,401,401,401,401,401,402,402,402,403,403,403,403,403,403,403,402,401,401,400,399,399,398,398,398,398,400,400,401,403,403,404,404,404,404,403,401,401,400,399,399,399,399,399,399,399,400,400,399,398,398,398,397,397,398,399,400,402,403,405,406,408,410,410,411,411,411,410,410,409,408,408,407,406,406,406,405,405,405,405,406,406,406,406,406,407,407,407,407,407,407,407,407,407,407,407,407,407,407,407,405,404,402,401,400,399,399,398,398,399,402,404,405,406,406,406,405,404,403,402,401,399,397,397,397,397,396,396,395,395,394,391,391,389,389,388,388,389,390,391,391,391,390,390,389,388,387
0,0,0,0,0,0,0,0,0,0,0,0,0,0,0,0,0,0,0,0,0,0,0,0,0,0,0,0,0,0,0,0,0,0,0,0,0,0,0,0,0,0,0,0,0,0,0,0,0,0,0,0,0,0,319,320,320,320,319,319,319,319,319,320,321,321,323,323,323,324,324,325,326,328,329,330,332,332,333,333,333,333,333,334,335,336,337,338,339,340,341,341,341,341,342,342,0,0,0,0,0,0,382,382,382,382,382,382,382,382,383,385,386,391,393,395,398,399,400,401,401,402,403,0,0,0,0,0,0,0,0,414,412,410,409,408,407,404,403,402,401,400,399,398,398,397,395,394,393,392,392,390,389,390,391,392,394,396,397,400,401,401,402,402,403,402,402,402,402,402,401,401,401,400,400,400,400,400,401,401,402,402,402,403,403,403,403,402,402,401,400,400,399,398,397,397,397,397,397,398,399,400,401,402,403,403,403,403,403,401,400,399,399,398,398,398,398,399,399,400,399,399,398,397,397,397,397,397,398,399,399,401,403,404,406,408,408,409,410,410,409,408,408,407,407,406,405,405,405,405,405,405,404,404,405,405,405,406,407,407,407,407,407,407,407,406,406,405,405,406,406,406,405,404,403,402,401,400,398,398,398,398,399,401,403,404,405,405,405,404,403,403,401,400,399,397,397,397,397,395,395,394,0,393,390,389,388,388,387,387,388,389,390,391,390,390,390,388,388,387
0,0,0,0,0,0,0,0,0,0,0,0,0,0,0,0,0,0,0,0,0,0,0,0,0,0,0,0,0,0,0,0,0,0,0,0,0,0,0,0,0,0,0,0,0,0,0,0,0,0,0,0,0,0,0,320,320,320,320,319,319,319,319,320,320,321,322,323,323,323,324,324,325,327,328,329,332,332,333,333,333,0,335,335,337,338,339,340,340,341,341,342,342,342,342,342,343,0,0,0,0,0,382,382,382,383,383,383,383,383,385,386,387,389,391,393,396,398,398,399,399,400,400,400,401,0,0,0,0,0,0,408,407,406,406,405,404,403,401,400,400,399,398,397,397,397,396,394,393,392,390,389,388,389,390,391,394,395,397,400,401,401,402,403,403,403,402,402,402,401,401,400,400,400,400,400,400,400,400,401,401,401,402,402,402,402,402,402,401,401,400,399,398,397,396,396,396,396,396,397,398,399,400,401,402,403,403,402,402,401,399,398,398,398,397,397,398,398,399,399,399,399,397,397,396,396,395,396,397,397,398,399,400,401,404,405,406,406,407,407,407,406,405,405,405,404,404,403,403,403,403,403,403,404,404,405,405,405,406,407,407,407,407,407,406,406,406,405,405,405,405,405,405,404,403,401,400,399,398,398,398,398,398,401,402,404,404,404,404,403,402,401,0,0,398,397,396,396,396,394,0,0,392,391,388,388,387,387,386,387,388,388,390,390,390,389,389,388,387,387
0,0,0,0,0,0,0,0,0,0,0,0,0,0,0,0,0,0,0,0,0,0,0,0,0,0,0,0,0,0,0,0,0,0,0,0,0,0,0,0,0,0,0,0,0,0,0,0,0,0,0,0,0,0,319,320,320,321,320,319,319,319,319,320,320,321,322,323,323,323,324,324,325,327,328,329,332,333,0,0,0,0,0,0,0,340,341,341,342,342,342,342,342,343,343,343,343,344,0,0,0,0,0,0,383,383,383,383,383,384,385,385,387,389,390,392,394,395,396,397,398,398,398,398,398,398,0,0,0,0,401,402,402,403,402,402,402,402,400,399,399,398,397,397,396,396,395,393,392,391,390,389,387,388,389,390,393,395,397,400,401,401,402,402,403,403,402,402,402,401,400,400,400,399,399,399,399,400,400,401,401,401,401,401,401,401,401,401,401,400,399,398,397,396,395,394,394,394,394,395,395,397,397,399,400,400,400,400,400,400,398,397,397,396,396,396,397,397,397,399,399,398,397,396,396,395,395,396,397,397,398,399,400,401,401,403,404,405,406,405,406,405,405,404,404,403,403,403,403,403,403,403,403,403,404,404,405,405,406,407,407,407,407,407,406,405,405,405,405,405,405,405,404,404,402,401,400,399,398,397,397,397,397,399,400,402,402,403,402,401,400,0,0,398,397,395,395,395,394,394,393,0,390,389,387,387,386,386,385,386,387,388,389,389,389,388,388,387,386,385
0,0,0,0,0,0,0,0,0,0,0,0,0,0,0,0,0,0,0,0,0,0,0,0,0,0,0,0,0,0,0,0,0,0,0,0,0,0,0,0,0,0,0,0,0,0,0,0,0,0,0,0,313,317,319,320,321,321,320,320,319,319,319,320,0,322,323,324,325,325,326,327,328,329,0,0,333,335,335,0,0,0,0,0,0,344,344,344,344,344,344,344,344,344,344,344,344,344,344,0,0,0,0,0,0,383,383,383,383,384,384,385,386,387,389,390,391,393,394,395,396,397,397,396,396,395,0,0,0,395,396,398,399,399,400,400,400,400,399,398,398,397,396,396,395,395,394,392,391,390,389,388,387,387,388,390,393,395,397,400,401,401,401,402,402,402,401,401,401,400,400,399,399,399,399,399,399,399,400,401,401,400,400,401,400,400,400,400,399,399,398,397,397,395,394,393,393,392,392,393,394,395,396,398,399,399,399,399,399,399,397,397,396,395,395,395,396,396,397,398,398,398,397,396,395,0,395,396,396,397,398,399,399,400,401,403,404,404,405,405,405,404,404,404,404,403,402,402,402,402,402,402,402,403,404,404,405,405,406,407,407,407,407,406,406,405,405,405,405,405,404,404,403,403,401,400,399,398,397,396,396,395,396,397,397,397,398,398,399,0,399,396,395,394,392,392,392,391,390,389,388,387,386,385,384,384,384,384,384,384,386,387,388,388,388,388,387,386,385,385
0,0,0,0,0,0,0,0,0,0,0,0,0,0,0,0,0,0,0,0,0,0,0,0,0,0,0,0,0,0,0,0,0,0,0,0,0,0,0,0,0,0,0,0,0,0,0,0,0,0,0,0,313,318,0,0,0,323,0,0,0,0,0,321,322,324,325,325,326,327,328,328,329,0,0,0,0,0,0,0,0,0,0,0,346,345,345,345,345,344,344,344,344,344,344,344,344,344,345,345,0,0,0,0,0,0,383,383,383,383,384,385,385,387,388,389,390,392,392,393,394,395,395,395,395,394,392,392,392,392,392,393,394,394,395,395,396,396,396,396,396,395,395,394,394,393,392,390,390,388,388,387,386,387,388,389,393,395,397,400,401,401,401,401,401,401,400,400,400,399,399,399,398,398,398,399,399,399,400,400,400,400,400,400,399,399,399,399,399,398,398,397,396,395,394,392,392,391,391,391,393,394,395,397,397,398,398,398,398,398,397,396,395,395,395,395,395,396,397,397,397,397,395,395,394,394,393,394,395,396,397,398,399,400,400,402,403,403,404,405,405,404,404,403,403,403,402,402,402,402,402,402,403,403,404,404,405,405,407,407,407,407,407,406,406,405,405,404,404,404,403,403,401,400,399,398,397,396,395,394,394,393,394,394,394,395,395,396,396,396,0,393,392,391,390,389,390,389,388,387,387,385,384,383,383,383,383,384,384,384,385,386,387,387,387,387,387,385,385,384
0,0,0,0,0,0,0,0,0,0,0,0,0,0,0,0,0,0,0,0,0,0,0,0,0,0,0,0,0,0,0,0,0,0,0,0,0,0,0,0,0,0,0,0,0,0,0,0,0,0,0,0,0,0,0,0,0,0,0,0,0,0,0,0,0,0,326,327,327,328,329,330,0,0,333,0,0,0,0,0,0,0,347,347,347,346,346,346,345,345,345,345,344,344,344,344,344,345,345,345,0,0,0,0,0,382,382,382,382,383,383,384,384,385,386,387,387,388,389,389,390,391,392,392,392,391,391,391,391,391,391,391,392,392,393,393,394,394,394,394,394,394,393,393,392,392,391,390,389,388,387,387,386,386,387,389,393,395,397,400,401,401,401,400,400,400,399,399,399,399,398,398,398,398,398,398,399,399,399,400,400,399,399,399,399,399,398,398,398,398,397,396,395,394,394,392,391,391,390,390,391,392,393,395,395,396,396,397,397,396,396,395,395,394,394,394,395,395,396,396,394,393,392,390,390,389,389,389,392,393,394,395,397,398,399,401,402,403,404,404,404,404,403,403,403,402,402,0,0,0,0,0,0,0,0,0,0,0,0,408,0,0,0,0,406,405,405,405,405,404,402,401,400,400,399,397,396,395,394,393,392,392,0,0,392,393,393,393,394,393,392,392,390,389,389,388,388,387,386,385,385,383,383,382,382,382,383,383,384,384,385,386,386,386,386,386,386,385,384,384
