# .PCD v0.7 - Point Cloud Data file format
VERSION 0.7
FIELDS x y z
SIZE 4 4 4
TYPE F F F
COUNT 1 1 1
WIDTH 1702
HEIGHT 1
VIEWPOINT 0 0 0 1 0 0 0
POINTS 1702
DATA ascii
305.1753696 -21.11583311 405
307.2865535 -21.11583311 405
309.3977373 -21.11583311 405
311.5089212 -21.11583311 405
313.6201051 -21.11583311 405
315.7312889 -21.11583311 405
317.8424728 -21.11583311 405
319.1636476 -21.06369525 404
321.2696187 -21.06369525 404
324.1760243 -21.11583311 405
356.4380487 -22.62783103 434
366.1388914 -23.09707177 443
237.2507935 -19.14542443 408
238.7909059 -19.09849937 407
240.9125154 -19.09849937 407
243.0341248 -19.09849937 407
245.1557343 -19.09849937 407
246.0622217 -19.00464925 405
248.1734055 -19.00464925 405
250.2845894 -19.00464925 405
252.3957732 -19.00464925 405
253.8785449 -18.95772419 404
255.9845159 -18.95772419 404
258.090487 -18.95772419 404
260.196458 -18.95772419 404
262.3024291 -18.95772419 404
265.0628764 -19.00464925 405
267.8337493 -19.05157431 406
269.9501459 -19.05157431 406
271.3964279 -19.00464925 405
273.5076118 -19.00464925 405
274.9382554 -18.95772419 404
276.3584734 -18.91079913 403
277.7682659 -18.86387407 402
278.471454 -18.77002395 400
279.8551825 -18.72309889 399
281.9350895 -18.72309889 399
284.0149966 -18.72309889 399
285.3778738 -18.67617383 398
288.8970533 -18.77002395 400
290.9821732 -18.77002395 400
293.7999613 -18.81694901 401
296.628175 -18.86387407 402
299.4668143 -18.91079913 403
302.3158791 -18.95772419 404
304.4218502 -18.95772419 404
306.5278213 -18.95772419 404
308.6337923 -18.95772419 404
310.7397634 -18.95772419 404
313.6201051 -19.00464925 405
314.9517055 -18.95772419 404
317.0576765 -18.95772419 404
319.1636476 -18.95772419 404
320.4743968 -18.91079913 403
323.3755897 -18.95772419 404
354.7954771 -20.27162587 432
238.7909059 -16.97688992 407
240.9125154 -16.97688992 407
243.0341248 -16.97688992 407
244.5533861 -16.93517766 406
246.0622217 -16.8934654 405
247.5606317 -16.85175314 404
249.6666027 -16.85175314 404
251.7725738 -16.85175314 404
253.2501326 -16.81004088 403
255.3508909 -16.81004088 403
257.4516491 -16.81004088 403
260.196458 -16.85175314 404
262.3024291 -16.85175314 404
265.0628764 -16.8934654 405
267.8337493 -16.93517766 406
269.9501459 -16.93517766 406
272.0665426 -16.93517766 406
273.5076118 -16.8934654 405
274.9382554 -16.85175314 404
276.3584734 -16.81004088 403
278.4592317 -16.81004088 403
278.471454 -16.68490409 400
279.8551825 -16.64319183 399
281.2284853 -16.60147957 398
283.3031795 -16.60147957 398
285.3778738 -16.60147957 398
288.1748107 -16.64319183 399
290.2547178 -16.64319183 399
293.067293 -16.68490409 400
295.8902939 -16.72661635 401
298.7237204 -16.76832862 402
301.5675725 -16.81004088 403
303.6683308 -16.81004088 403
306.5278213 -16.85175314 404
308.6337923 -16.85175314 404
310.7397634 -16.85175314 404
312.8457344 -16.85175314 404
314.9517055 -16.85175314 404
317.0576765 -16.85175314 404
318.3736386 -16.81004088 403
320.4743968 -16.81004088 403
321.7747205 -16.76832862 402
327.898503 -16.97688992 407
351.5103338 -17.85284738 428
364.4858942 -18.39510676 441
240.3205927 -14.818781 406
242.4369894 -14.818781 406
243.9510378 -14.78228154 405
245.4546606 -14.74578208 404
246.9478578 -14.70928262 403
249.0486161 -14.70928262 403
251.1493744 -14.70928262 403
252.6217204 -14.67278316 402
254.7172658 -14.67278316 402
256.8128113 -14.67278316 402
259.5524074 -14.70928262 403
262.3024291 -14.74578208 404
265.0628764 -14.78228154 405
267.8337493 -14.818781 406
269.9501459 -14.818781 406
272.0665426 -14.818781 406
273.5076118 -14.78228154 405
275.6187957 -14.78228154 405
277.0442265 -14.74578208 404
278.4592317 -14.70928262 403
278.471454 -14.59978424 400
279.8551825 -14.56328478 399
281.2284853 -14.52678532 398
282.5913625 -14.49028586 397
284.660844 -14.49028586 397
286.7303254 -14.49028586 397
289.5272623 -14.52678532 398
291.6019566 -14.52678532 398
294.4145319 -14.56328478 399
297.9806266 -14.6362837 401
300.8192659 -14.67278316 402
302.9148113 -14.67278316 402
305.769089 -14.70928262 403
307.8698473 -14.70928262 403
309.9706055 -14.70928262 403
312.8457344 -14.74578208 404
314.9517055 -14.74578208 404
316.2728803 -14.70928262 403
317.5836295 -14.67278316 402
318.8839532 -14.6362837 401
320.1738512 -14.59978424 400
323.0646185 -14.6362837 401
329.2092523 -14.818781 406
355.6167629 -15.80426644 433
356.2209079 -15.73126752 431
239.7286701 -12.67109768 405
241.839854 -12.67109768 405
243.3486896 -12.63981102 404
244.8470996 -12.60852436 403
246.335084 -12.5772377 402
248.4306295 -12.5772377 402
249.9029755 -12.54595104 401
251.9933081 -12.54595104 401
254.0836408 -12.54595104 401
256.1739734 -12.54595104 401
258.9083567 -12.5772377 402
261.6531656 -12.60852436 403
265.0628764 -12.67109768 405
267.1740602 -12.67109768 405
269.9501459 -12.70238435 406
272.0665426 -12.70238435 406
273.5076118 -12.67109768 405
275.6187957 -12.67109768 405
277.0442265 -12.63981102 404
278.4592317 -12.60852436 403
278.471454 -12.51466438 400
279.8551825 -12.48337772 399
280.5218811 -12.4208044 397
281.8795455 -12.38951774 396
283.2267843 -12.35823107 395
285.2858402 -12.35823107 395
287.344896 -12.35823107 395
290.1366201 -12.38951774 396
292.9387698 -12.4208044 397
295.0082513 -12.4208044 397
298.574346 -12.48337772 399
301.4077725 -12.51466438 400
304.2516246 -12.54595104 401
307.1059023 -12.5772377 402
309.2014477 -12.5772377 402
312.0713638 -12.60852436 403
314.1721221 -12.60852436 403
315.4880841 -12.5772377 402
316.7936205 -12.54595104 401
318.0887313 -12.51466438 400
320.1738512 -12.51466438 400
321.4533236 -12.48337772 399
325.9658114 -12.5772377 402
239.1367475 -10.53383997 404
240.6455831 -10.50776611 403
242.1439931 -10.48169224 402
243.6319775 -10.45561838 401
244.4967625 -10.40347066 399
246.5766695 -10.40347066 399
248.6565766 -10.40347066 399
251.3648959 -10.42954452 400
253.4500158 -10.42954452 400
256.1739734 -10.45561838 401
258.9083567 -10.48169224 402
261.6531656 -10.50776611 403
265.0628764 -10.55991383 405
267.1740602 -10.55991383 405
269.2852441 -10.55991383 405
271.3964279 -10.55991383 405
273.5076118 -10.55991383 405
275.6187957 -10.55991383 405
277.0442265 -10.53383997 404
278.4592317 -10.50776611 403
278.471454 -10.42954452 400
279.153791 -10.3773968 398
280.5218811 -10.35132294 397
281.1677284 -10.29917522 395
282.5097545 -10.27310135 394
283.8413549 -10.24702749 393
286.6174406 -10.27310135 394
288.6712837 -10.27310135 394
291.4630077 -10.29917522 395
295.0082513 -10.35132294 397
297.8260394 -10.3773968 398
300.654253 -10.40347066 399
303.4928923 -10.42954452 400
306.3419572 -10.45561838 401
308.4322899 -10.45561838 401
311.2969932 -10.48169224 402
313.3925386 -10.48169224 402
314.7032879 -10.45561838 401
316.0036115 -10.42954452 400
318.0887313 -10.42954452 400
319.3734166 -10.40347066 399
319.8420288 -10.35132294 397
322.7223705 -10.3773968 398
240.6455831 -8.407007849 403
241.5416448 -8.365285726 401
243.0244165 -8.344424664 400
243.8839886 -8.302702541 398
245.9586829 -8.302702541 398
248.0333772 -8.302702541 398
250.1080714 -8.302702541 398
252.8163907 -8.323563603 399
256.1739734 -8.365285726 401
258.9083567 -8.386146788 402
261.6531656 -8.407007849 403
265.0628764 -8.448729973 405
267.1740602 -8.448729973 405
269.2852441 -8.448729973 405
271.3964279 -8.448729973 405
273.5076118 -8.448729973 405
275.6187957 -8.448729973 405
277.0442265 -8.427868911 404
278.4592317 -8.407007849 403
277.7752754 -8.323563603 399
279.153791 -8.302702541 398
279.8152768 -8.260980418 396
280.4559114 -8.219258294 394
281.7927246 -8.198397233 393
283.1191123 -8.177536171 392
285.1625297 -8.177536171 392
287.9386154 -8.198397233 393
289.9872457 -8.198397233 393
292.7789698 -8.219258294 394
296.3294261 -8.260980418 396
299.1472142 -8.281841479 397
301.9754279 -8.302702541 398
305.5780122 -8.344424664 400
307.663132 -8.344424664 400
310.5226225 -8.365285726 401
312.6129552 -8.365285726 401
314.7032879 -8.365285726 401
316.0036115 -8.344424664 400
317.2935095 -8.323563603 399
318.5729819 -8.302702541 398
318.2307339 -8.240119356 395
319.4789295 -8.219258294 394
321.5327726 -8.219258294 394
240.9392966 -6.259304807 400
242.4168554 -6.243656545 399
243.2712148 -6.212360021 397
245.3406963 -6.212360021 397
247.4101777 -6.212360021 397
249.4796592 -6.212360021 397
252.1827657 -6.228008283 398
255.5351356 -6.259304807 400
258.9083567 -6.290601331 402
261.6531656 -6.306249593 403
264.4084001 -6.321897855 404
267.1740602 -6.337546117 405
269.2852441 -6.337546117 405
271.3964279 -6.337546117 405
273.5076118 -6.337546117 405
275.6187957 -6.337546117 405
277.0442265 -6.321897855 404
278.4592317 -6.306249593 403
277.7752754 -6.243656545 399
278.4523996 -6.212360021 397
278.4020684 -6.165415235 394
279.7440944 -6.149766973 393
281.0756948 -6.134118711 392
282.3968696 -6.118470449 391
284.4350743 -6.118470449 391
286.473279 -6.118470449 391
288.5114836 -6.118470449 391
291.2927821 -6.134118711 392
294.8328128 -6.165415235 394
298.3936948 -6.196711759 396
301.2166956 -6.212360021 397
304.0501221 -6.228008283 398
307.663132 -6.259304807 400
309.7482519 -6.259304807 400
311.8333718 -6.259304807 400
313.9184916 -6.259304807 400
314.4235934 -6.228008283 398
315.7030659 -6.212360021 397
316.1716781 -6.181063497 395
317.4250865 -6.165415235 394
317.8572091 -6.134118711 392
319.9006266 -6.134118711 392
321.1227582 -6.118470449 391
323.1609628 -6.118470449 391
241.8092944 -4.153314024 398
243.2712148 -4.142878562 397
244.7227096 -4.1324431 396
246.7869783 -4.1324431 396
249.4796592 -4.142878562 397
251.5491406 -4.142878562 397
255.5351356 -4.174184949 400
258.9083567 -4.195055874 402
261.6531656 -4.205491336 403
264.4084001 -4.215926799 404
267.1740602 -4.226362261 405
269.2852441 -4.226362261 405
271.3964279 -4.226362261 405
273.5076118 -4.226362261 405
274.9382554 -4.215926799 404
276.3584734 -4.205491336 403
277.0773 -4.184620412 401
277.0790968 -4.153314024 398
277.0496167 -4.122007637 395
277.6954641 -4.101136713 393
279.0322773 -4.09070125 392
280.358665 -4.080265788 391
281.674627 -4.069830326 390
282.9801634 -4.059394863 389
285.0079425 -4.059394863 389
287.0357215 -4.059394863 389
289.8065944 -4.069830326 390
292.5878929 -4.080265788 391
296.1331365 -4.101136713 393
298.9404989 -4.111572175 394
302.5222321 -4.1324431 396
306.1248164 -4.153314024 398
308.1995106 -4.153314024 398
311.0537883 -4.163749487 399
312.3488992 -4.153314024 398
313.6335844 -4.142878562 397
314.907844 -4.1324431 396
315.3712434 -4.111572175 394
316.6194391 -4.101136713 393
317.0463489 -4.080265788 391
319.0845535 -4.080265788 391
321.1227582 -4.080265788 391
323.1609628 -4.080265788 391
241.2017333 -2.073397103 397
242.658441 -2.068174441 396
244.104723 -2.062951778 395
246.1637788 -2.062951778 395
250.9155156 -2.068174441 396
255.5351356 -2.089065092 400
258.9083567 -2.099510417 402
261.6531656 -2.10473308 403
264.4084001 -2.109955743 404
267.1740602 -2.115178405 405
269.2852441 -2.115178405 405
271.3964279 -2.115178405 405
272.8322844 -2.109955743 404
274.2577152 -2.10473308 403
275.6727204 -2.099510417 402
276.3863342 -2.089065092 400
277.7752754 -2.083842429 399
276.3482253 -2.057729115 394
277.6954641 -2.052506453 393
279.0322773 -2.04728379 392
280.358665 -2.042061127 391
281.674627 -2.036838464 390
282.9801634 -2.031615802 389
285.0079425 -2.031615802 389
287.0357215 -2.031615802 389
289.8065944 -2.036838464 390
292.5878929 -2.042061127 391
296.1331365 -2.052506453 393
298.1817667 -2.052506453 393
300.994342 -2.057729115 394
304.5865007 -2.068174441 396
307.42514 -2.073397103 397
309.4946215 -2.073397103 397
311.5641029 -2.073397103 397
312.8435754 -2.068174441 396
314.1126222 -2.062951778 395
315.3712434 -2.057729115 394
315.8137916 -2.04728379 392
317.0463489 -2.042061127 391
319.0845535 -2.042061127 391
321.1227582 -2.042061127 391
322.3344642 -2.036838464 390
244.104723 -0.003895918679 395
245.5405794 -0.003886055594 394
248.2228347 -0.003895918679 395
250.2818906 -0.003895918679 395
262.3024291 -0.003984686447 404
268.6203422 -0.003984686447 404
276.3482253 -0.003886055594 394
277.6954641 -0.003876192509 393
279.0322773 -0.003866329423 392
280.358665 -0.003856466338 391
282.3968696 -0.003856466338 391
283.7076189 -0.003846603253 390
285.7406107 -0.003846603253 390
287.7736026 -0.003846603253 390
289.8065944 -0.003846603253 390
292.5878929 -0.003856466338 391
295.379617 -0.003866329423 392
298.1817667 -0.003876192509 393
300.994342 -0.003886055594 394
303.8173429 -0.003895918679 395
306.6507694 -0.003905781764 396
308.715038 -0.003905781764 396
310.7793067 -0.003905781764 396
312.0535663 -0.003895918679 395
313.3174004 -0.003886055594 394
314.5708088 -0.003876192509 393
315.8137916 -0.003866329423 392
317.0463489 -0.003856466338 391
319.0845535 -0.003856466338 391
320.3014724 -0.003846603253 390
322.3344642 -0.003846603253 390
241.2017333 2.065565814 397
243.2712148 2.065565814 397
244.104723 2.055159941 395
246.1637788 2.055159941 395
276.3829181 2.065565814 397
276.3482253 2.049957004 394
277.6954641 2.044754068 393
279.7440944 2.044754068 393
281.0756948 2.039551131 392
282.3968696 2.034348194 391
283.7076189 2.029145258 390
285.7406107 2.029145258 390
287.7736026 2.029145258 390
290.5496883 2.034348194 391
292.5878929 2.034348194 391
295.379617 2.039551131 392
297.4230345 2.039551131 392
300.230397 2.044754068 393
302.2790272 2.044754068 393
305.1020281 2.049957004 394
307.9354546 2.055159941 395
309.2097142 2.049957004 394
311.2635573 2.049957004 394
312.5221785 2.044754068 393
313.7703742 2.039551131 392
315.8137916 2.039551131 392
317.0463489 2.034348194 391
318.2684805 2.029145258 390
320.3014724 2.029145258 390
322.3344642 2.029145258 390
243.2712148 4.135047272 397
244.7227096 4.124631536 396
275.6953684 4.155878745 399
276.3829181 4.135047272 397
277.0496167 4.1142158 395
278.4020684 4.103800064 394
279.7440944 4.093384328 393
281.0756948 4.082968591 392
283.1191123 4.082968591 392
284.4350743 4.072552855 391
286.473279 4.072552855 391
289.2493646 4.082968591 392
290.5496883 4.072552855 391
293.3361996 4.082968591 392
295.379617 4.082968591 392
297.4230345 4.082968591 392
299.4664519 4.082968591 392
301.5098694 4.082968591 392
303.5532869 4.082968591 392
306.3762878 4.093384328 393
308.424918 4.093384328 393
310.4735483 4.093384328 393
312.5221785 4.093384328 393
313.7703742 4.082968591 392
315.8137916 4.082968591 392
317.0463489 4.072552855 391
318.2684805 4.062137119 390
320.3014724 4.062137119 390
322.3344642 4.062137119 390
243.2712148 6.204528731 397
245.3406963 6.204528731 397
247.4101777 6.204528731 397
249.4796592 6.204528731 397
276.3863342 6.251414339 400
277.0790968 6.220157267 398
277.7510082 6.188900195 396
279.1086726 6.173271659 395
281.1677284 6.173271659 395
283.2267843 6.173271659 395
284.5635975 6.157643124 394
285.8899852 6.142014588 393
288.6712837 6.157643124 394
290.7251267 6.157643124 394
292.0358759 6.142014588 393
294.0845062 6.142014588 393
295.379617 6.126386052 392
297.4230345 6.126386052 392
298.7025069 6.110757516 391
300.7407116 6.110757516 391
303.5532869 6.126386052 392
305.5967043 6.126386052 392
307.6401218 6.126386052 392
309.6835393 6.126386052 392
311.7269567 6.126386052 392
313.7703742 6.126386052 392
315.8137916 6.126386052 392
317.0463489 6.110757516 391
318.2684805 6.09512898 390
320.3014724 6.09512898 390
321.5079656 6.079500444 389
243.8839886 8.294851525 398
245.9586829 8.294851525 398
247.4101777 8.27401019 397
250.1080714 8.294851525 398
272.0665426 8.461582209 406
272.8322844 8.419899538 404
274.2577152 8.399058203 403
275.6727204 8.378216867 402
276.3863342 8.336534196 400
277.7752754 8.315692861 399
278.4523996 8.27401019 397
279.8152768 8.253168854 396
281.8795455 8.253168854 396
283.2267843 8.232327519 395
285.2858402 8.232327519 395
287.344896 8.232327519 395
289.4039519 8.232327519 395
290.7251267 8.211486183 394
292.7789698 8.211486183 394
294.0845062 8.190644848 393
295.379617 8.169803512 392
297.4230345 8.169803512 392
298.7025069 8.148962177 391
300.7407116 8.148962177 391
302.7789162 8.148962177 391
304.8171209 8.148962177 391
307.6401218 8.169803512 392
309.6835393 8.169803512 392
311.7269567 8.169803512 392
313.7703742 8.169803512 392
315.8137916 8.169803512 392
317.0463489 8.148962177 391
318.2684805 8.128120841 390
320.3014724 8.128120841 390
321.5079656 8.107279506 389
245.9586829 10.36954578 398
248.0333772 10.36954578 398
250.1080714 10.36954578 398
252.8163907 10.39559992 399
263.600956 10.57797886 406
266.3718288 10.604033 407
268.4934383 10.604033 407
270.6150478 10.604033 407
272.0665426 10.57797886 406
272.8322844 10.52587059 404
274.9382554 10.52587059 404
276.3584734 10.49981646 403
277.0773 10.44770819 401
277.7752754 10.39559992 399
278.4523996 10.34349165 397
280.5218811 10.34349165 397
281.8795455 10.31743751 396
283.9438141 10.31743751 396
286.0080828 10.31743751 396
288.0723515 10.31743751 396
290.1366201 10.31743751 396
291.4630077 10.29138338 395
292.7789698 10.26532924 394
294.0845062 10.23927511 393
295.379617 10.21322097 392
296.6643023 10.18716684 391
298.7025069 10.18716684 391
299.9715537 10.1611127 390
302.0045456 10.1611127 390
304.8171209 10.18716684 391
306.8553256 10.18716684 391
309.6835393 10.21322097 392
311.7269567 10.21322097 392
313.7703742 10.21322097 392
315.0081442 10.18716684 391
316.2354886 10.1611127 390
317.4524075 10.13505857 389
319.4801865 10.13505857 389
320.681467 10.10900443 388
246.5766695 12.47550698 399
248.0333772 12.44424004 398
250.1080714 12.44424004 398
252.8163907 12.47550698 399
256.8128113 12.56930778 402
260.196458 12.63184165 404
262.9516925 12.66310859 405
265.7173526 12.69437552 406
267.8337493 12.69437552 406
269.9501459 12.69437552 406
271.3964279 12.66310859 405
272.8322844 12.63184165 404
274.2577152 12.60057472 403
275.6727204 12.56930778 402
277.0773 12.53804085 401
277.7752754 12.47550698 399
278.4523996 12.41297311 397
280.5218811 12.41297311 397
282.5913625 12.41297311 397
284.660844 12.41297311 397
286.0080828 12.38170617 396
288.0723515 12.38170617 396
289.4039519 12.35043924 395
291.4630077 12.35043924 395
292.7789698 12.3191723 394
292.5878929 12.2253715 391
294.6260976 12.2253715 391
295.1468378 12.16283763 389
297.1746169 12.16283763 389
298.4332381 12.13157069 388
300.4558044 12.13157069 388
303.257954 12.16283763 389
306.0705293 12.19410456 390
308.8935302 12.2253715 391
310.9317349 12.2253715 391
312.9699395 12.2253715 391
314.2024968 12.19410456 390
316.2354886 12.19410456 390
317.4524075 12.16283763 389
318.6589007 12.13157069 388
319.8549683 12.10030376 387
248.0333772 14.5189343 398
250.1080714 14.5189343 398
252.8163907 14.55541403 399
256.1739734 14.6283735 401
259.5524074 14.70133297 403
262.3024291 14.73781271 404
265.0628764 14.77429244 405
267.1740602 14.77429244 405
269.2852441 14.77429244 405
270.7263133 14.73781271 404
272.1569569 14.70133297 403
274.2577152 14.70133297 403
274.9869674 14.6283735 401
276.3863342 14.59189377 400
277.7752754 14.55541403 399
278.4523996 14.48245457 397
280.5218811 14.48245457 397
282.5913625 14.48245457 397
284.660844 14.48245457 397
285.2858402 14.4094951 395
287.344896 14.4094951 395
288.6712837 14.37301536 394
292.0358759 14.33653563 393
291.8395863 14.22709642 390
293.1190587 14.19061669 389
294.3881056 14.15413696 388
296.4106718 14.15413696 388
297.6640803 14.11765722 387
299.6814337 14.11765722 387
302.4783706 14.15413696 388
305.2857331 14.19061669 389
308.1035212 14.22709642 390
310.9317349 14.26357616 391
312.1695049 14.22709642 390
314.2024968 14.22709642 390
316.2354886 14.22709642 390
316.6363344 14.15413696 388
318.6589007 14.15413696 388
319.8549683 14.11765722 387
248.0333772 16.59362856 398
250.1080714 16.59362856 398
252.1827657 16.59362856 398
256.1739734 16.71870616 401
258.9083567 16.76039869 402
262.3024291 16.84378376 404
264.4084001 16.84378376 404
266.5143712 16.84378376 404
268.6203422 16.84378376 404
270.0561987 16.80209123 403
271.4816295 16.76039869 402
272.8966347 16.71870616 401
277.0790968 16.59362856 398
278.4523996 16.55193602 397
279.8152768 16.51024349 396
281.8795455 16.51024349 396
283.9438141 16.51024349 396
284.5635975 16.42685842 394
289.2493646 16.34347335 392
290.5496883 16.30178082 391
290.342973 16.17670322 388
292.3655393 16.17670322 388
293.6293733 16.13501068 387
295.6467268 16.13501068 387
296.8949224 16.09331815 386
299.6814337 16.13501068 387
302.4783706 16.17670322 388
304.5009369 16.17670322 388
308.1035212 16.26008829 390
310.1365131 16.26008829 390
312.1695049 16.26008829 390
313.3968493 16.21839575 389
315.4246284 16.21839575 389
316.6363344 16.17670322 388
317.8376149 16.13501068 387
319.8549683 16.13501068 387
249.4796592 18.62141748 397
251.5491406 18.62141748 397
254.8962978 18.71522815 399
257.6202555 18.76213348 400
261.0039022 18.85594415 402
263.0994477 18.85594415 402
265.8546822 18.90284949 403
267.2905386 18.85594415 402
268.7159694 18.80903882 401
270.1309746 18.76213348 400
275.0044025 18.66832282 398
276.3829181 18.62141748 397
277.0496167 18.52760682 395
279.1086726 18.52760682 395
281.1677284 18.52760682 395
282.5097545 18.48070148 394
284.5635975 18.48070148 394
285.8899852 18.43379615 393
287.7736026 18.29308015 390
289.0635006 18.24617481 389
289.5946664 18.15236415 387
291.6120199 18.15236415 387
292.8706411 18.10545881 386
294.8827818 18.10545881 386
296.1257646 18.05855348 385
298.9070631 18.10545881 386
301.6987872 18.15236415 387
304.5009369 18.19926948 388
307.3135122 18.24617481 389
309.3412912 18.24617481 389
311.3690703 18.24617481 389
312.5912019 18.19926948 388
314.6137682 18.19926948 388
315.8202614 18.15236415 387
317.0163291 18.10545881 386
318.2019711 18.05855348 385
248.2228347 20.58666267 395
250.9155156 20.63878081 396
253.6186221 20.69089894 397
255.6881036 20.69089894 397
257.757585 20.69089894 397
260.4815427 20.74301707 398
262.556237 20.74301707 398
265.2958331 20.79513521 399
269.4556472 20.79513521 399
269.4939335 20.63878081 396
270.8724491 20.58666267 395
272.2405392 20.53454454 394
272.902025 20.43030827 392
274.9454424 20.43030827 392
276.9888599 20.43030827 392
278.3204603 20.37819014 391
279.6416351 20.32607201 390
280.9523844 20.27395387 389
282.252708 20.22183574 388
283.542606 20.16971761 387
284.8220785 20.11759947 386
286.0911253 20.06548134 385
287.3497465 20.01336321 384
289.3514616 20.01336321 384
291.3531766 20.01336321 384
293.3548917 20.01336321 384
295.3566068 20.01336321 384
297.3583218 20.01336321 384
300.9192038 20.11759947 386
303.7161406 20.16971761 387
306.5235031 20.22183574 388
308.5460694 20.22183574 388
310.5686357 20.22183574 388
312.5912019 20.22183574 388
313.802908 20.16971761 387
315.0041884 20.11759947 386
316.1950432 20.06548134 385
318.2019711 20.06548134 385
249.6482655 22.5883876 394
251.7021086 22.5883876 394
253.7559516 22.5883876 394
256.4590581 22.64571853 395
258.518114 22.64571853 395
261.2368589 22.70304947 396
263.3011275 22.70304947 396
265.3653962 22.70304947 396
267.4523128 22.53105667 393
268.81519 22.47372574 392
270.1676417 22.4163948 391
271.5096677 22.35906387 390
272.8412681 22.30173294 389
275.5756514 22.35906387 390
276.8968262 22.30173294 389
278.2075755 22.244402 388
279.5078991 22.18707107 387
281.5252526 22.18707107 387
282.0772696 22.0724092 385
283.3463164 22.01507827 384
284.6049376 21.95774734 383
286.6014399 21.95774734 383
288.5979421 21.95774734 383
290.5944444 21.95774734 383
293.3548917 22.01507827 384
295.3566068 22.01507827 384
297.3583218 22.01507827 384
300.1396203 22.0724092 385
302.9313444 22.12974014 386
305.7334941 22.18707107 387
307.7508476 22.18707107 387
309.768201 22.18707107 387
311.7855545 22.18707107 387
313.802908 22.18707107 387
314.1881154 22.0724092 385
316.1950432 22.0724092 385
317.3754725 22.01507827 384
252.4678504 24.5171432 392
255.1605313 24.57968693 393
257.2091615 24.57968693 393
259.2577918 24.57968693 393
261.9713239 24.64223066 394
263.3550523 24.57968693 393
264.7283551 24.5171432 392
266.7717726 24.5171432 392
267.443684 24.39205573 390
268.78571 24.329512 389
270.8134891 24.329512 389
272.1398767 24.26696826 388
274.1624429 24.26696826 388
275.4731922 24.20442453 387
276.7735158 24.1418808 386
278.0634138 24.07933707 385
280.0703417 24.07933707 385
280.6119331 23.9542496 383
282.6084354 23.9542496 383
283.8618438 23.89170587 382
285.8531333 23.89170587 382
287.8444227 23.89170587 382
290.5944444 23.9542496 383
292.5909467 23.9542496 383
295.3566068 24.01679333 384
297.3583218 24.01679333 384
300.1396203 24.07933707 385
302.9313444 24.1418808 386
304.9434851 24.1418808 386
306.9556257 24.1418808 386
308.9677664 24.1418808 386
310.9799071 24.1418808 386
312.9920477 24.1418808 386
314.1881154 24.07933707 385
315.3737574 24.01679333 384
317.3754725 24.01679333 384
249.7855951 26.49280412 391
251.8237997 26.49280412 391
253.8620044 26.49280412 391
255.900209 26.49280412 391
257.9384137 26.49280412 391
259.9766184 26.49280412 391
262.014823 26.49280412 391
263.3777002 26.42504759 390
264.7301519 26.35729106 389
265.3864249 26.22177799 387
267.4037783 26.22177799 387
269.4211318 26.22177799 387
272.7492345 26.15402146 386
274.0495581 26.08626493 385
275.3394561 26.0185084 384
278.6154308 25.95075187 383
279.8792649 25.88299533 382
281.8705543 25.88299533 382
283.11875 25.8152388 381
285.8531333 25.88299533 382
287.8444227 25.88299533 382
290.5944444 25.95075187 383
292.5909467 25.95075187 383
294.5874489 25.95075187 383
297.3583218 26.0185084 384
300.1396203 26.08626493 385
302.1465482 26.08626493 385
304.153476 26.08626493 385
306.1604039 26.08626493 385
308.1673318 26.08626493 385
309.3686122 26.0185084 384
311.3703273 26.0185084 384
313.3720423 26.0185084 384
314.5524716 25.95075187 383
316.5489738 25.95075187 383
249.1467572 28.45803945 390
249.8916478 28.31210079 388
251.9142141 28.31210079 388
253.2823041 28.23913146 387
255.2996576 28.23913146 387
257.317011 28.23913146 387
259.3343645 28.23913146 387
260.6763905 28.16616212 386
262.0079909 28.09319279 385
263.3291658 28.02022346 384
265.3308808 28.02022346 384
266.6364172 27.94725413 383
268.6329195 27.94725413 383
269.9228175 27.8742848 382
271.914107 27.8742848 382
273.1883666 27.80131547 381
275.1744433 27.80131547 381
277.16052 27.80131547 381
279.1465966 27.80131547 381
281.1326733 27.80131547 381
283.11875 27.80131547 381
285.8531333 27.8742848 382
287.8444227 27.8742848 382
290.5944444 27.94725413 383
292.5909467 27.94725413 383
295.3566068 28.02022346 384
297.3583218 28.02022346 384
299.3600369 28.02022346 384
301.361752 28.02022346 384
303.363467 28.02022346 384
305.3651821 28.02022346 384
307.3668971 28.02022346 384
308.5629648 27.94725413 383
311.3703273 28.02022346 384
312.5559693 27.94725413 383
314.5524716 27.94725413 383
316.5489738 27.94725413 383
247.8690815 30.33466705 388
249.2475972 30.25648492 387
250.6156872 30.17830279 386
252.6278279 30.17830279 386
254.6399685 30.17830279 386
255.9872073 30.10012066 385
257.9941352 30.10012066 385
259.3257356 30.02193852 384
260.6469105 29.94375639 383
262.6434127 29.94375639 383
263.9489491 29.86557426 382
265.24406 29.78739213 381
267.2301366 29.78739213 381
269.2162133 29.78739213 381
271.20229 29.78739213 381
273.1883666 29.78739213 381
275.1744433 29.78739213 381
277.16052 29.78739213 381
279.1465966 29.78739213 381
281.1326733 29.78739213 381
283.11875 29.78739213 381
285.8531333 29.86557426 382
287.8444227 29.86557426 382
290.5944444 29.94375639 383
292.5909467 29.94375639 383
295.3566068 30.02193852 384
297.3583218 30.02193852 384
299.3600369 30.02193852 384
301.361752 30.02193852 384
302.573458 29.94375639 383
304.5699603 29.94375639 383
306.5664625 29.94375639 383
308.5629648 29.94375639 383
310.559467 29.94375639 383
312.5559693 29.94375639 383
313.7311857 29.86557426 382
315.7224752 29.86557426 382
249.2475972 32.27383838 387
249.9664238 32.10704852 385
251.9733516 32.10704852 385
253.3205904 32.02365359 384
255.3223055 32.02365359 384
256.6539059 31.94025866 383
257.9750808 31.85686373 382
259.9663702 31.85686373 382
261.2719066 31.77346879 381
263.2579833 31.77346879 381
265.24406 31.77346879 381
266.5287452 31.69007386 380
268.5096091 31.69007386 380
270.4904729 31.69007386 380
272.4713368 31.69007386 380
274.4522007 31.69007386 380
276.4330645 31.69007386 380
278.4139284 31.69007386 380
281.1326733 31.77346879 381
283.11875 31.77346879 381
285.8531333 31.85686373 382
287.8444227 31.85686373 382
290.5944444 31.94025866 383
292.5909467 31.94025866 383
295.3566068 32.02365359 384
297.3583218 32.02365359 384
299.3600369 32.02365359 384
301.361752 32.02365359 384
302.573458 31.94025866 383
304.5699603 31.94025866 383
305.7660279 31.85686373 382
307.7573174 31.85686373 382
309.7486068 31.85686373 382
311.7398963 31.85686373 382
313.7311857 31.85686373 382
315.7224752 31.85686373 382
249.2475972 34.29119184 387
249.9664238 34.11397638 385
251.3188754 34.02536865 384
252.6609014 33.93676092 383
253.9925018 33.84815319 382
255.3136767 33.75954546 381
257.2997533 33.75954546 381
258.6052897 33.67093773 380
260.5861536 33.67093773 380
262.5670175 33.67093773 380
264.5478813 33.67093773 380
266.5287452 33.67093773 380
268.5096091 33.67093773 380
270.4904729 33.67093773 380
272.4713368 33.67093773 380
274.4522007 33.67093773 380
276.4330645 33.67093773 380
278.4139284 33.67093773 380
281.1326733 33.75954546 381
283.11875 33.75954546 381
285.8531333 33.84815319 382
287.8444227 33.84815319 382
290.5944444 33.93676092 383
292.5909467 33.93676092 383
294.5874489 33.93676092 383
297.3583218 34.02536865 384
301.783449 33.84815319 382
303.7747384 33.84815319 382
304.9655933 33.75954546 381
306.9516699 33.75954546 381
308.9377466 33.75954546 381
310.9238233 33.75954546 381
312.9098999 33.75954546 381
314.8959766 33.75954546 381
248.6678969 35.93326318 383
250.0099229 35.83944265 382
251.3415233 35.74562212 381
252.6626982 35.65180159 380
253.9734474 35.55798106 379
255.273771 35.46416053 378
257.2442093 35.46416053 378
259.2146475 35.46416053 378
260.49412 35.37034 377
263.1555241 35.46416053 378
265.1259623 35.46416053 378
267.8030048 35.55798106 379
269.7786559 35.55798106 379
271.754307 35.55798106 379
274.4522007 35.65180159 380
276.4330645 35.65180159 380
278.4139284 35.65180159 380
280.3947923 35.65180159 380
283.11875 35.74562212 381
285.1048266 35.74562212 381
287.0909033 35.74562212 381
289.0769799 35.74562212 381
291.8270016 35.83944265 382
293.8182911 35.83944265 382
295.8095806 35.83944265 382
302.1842948 35.65180159 380
304.1651586 35.65180159 380
306.1460225 35.65180159 380
308.1268864 35.65180159 380
310.1077502 35.65180159 380
312.0886141 35.65180159 380
314.069478 35.65180159 380
248.0186334 37.83073212 382
249.3554467 37.73169879 381
250.6818343 37.63266546 380
251.9977963 37.53363213 379
253.3033327 37.4345988 378
254.5984436 37.33556547 377
256.563669 37.33556547 377
258.5288945 37.33556547 377
260.49412 37.33556547 377
262.4593454 37.33556547 377
264.4245709 37.33556547 377
267.0964006 37.4345988 378
269.7786559 37.53363213 379
271.754307 37.53363213 379
273.729958 37.53363213 379
276.4330645 37.63266546 380
278.4139284 37.63266546 380
280.3947923 37.63266546 380
282.3756561 37.63266546 380
284.35652 37.63266546 380
286.3373839 37.63266546 380
288.3182477 37.63266546 380
291.0630566 37.73169879 381
293.0491333 37.73169879 381
295.0352099 37.73169879 381
297.0212866 37.73169879 381
303.364724 37.53363213 379
305.3403751 37.53363213 379
307.3160261 37.53363213 379
309.2916772 37.53363213 379
311.2673283 37.53363213 379
313.2429793 37.53363213 379
248.7009704 39.61352932 380
250.0221453 39.50928319 379
251.3328945 39.40503706 378
253.3033327 39.40503706 378
254.5984436 39.30079093 377
256.563669 39.30079093 377
258.5288945 39.30079093 377
260.49412 39.30079093 377
262.4593454 39.30079093 377
264.4245709 39.30079093 377
267.0964006 39.40503706 378
269.7786559 39.50928319 379
271.754307 39.50928319 379
274.4522007 39.61352932 380
276.4330645 39.61352932 380
278.4139284 39.61352932 380
280.3947923 39.61352932 380
282.3756561 39.61352932 380
284.35652 39.61352932 380
286.3373839 39.61352932 380
288.3182477 39.61352932 380
290.2991116 39.61352932 380
292.2799754 39.61352932 380
294.2608393 39.61352932 380
296.2417032 39.61352932 380
299.4134219 39.50928319 379
301.3890729 39.50928319 379
302.5642894 39.40503706 378
304.5347276 39.40503706 378
307.3160261 39.50928319 379
308.4756042 39.40503706 378
310.4460424 39.40503706 378
312.4164807 39.40503706 378
248.7009704 41.59439319 380
250.0221453 41.48493426 379
251.3328945 41.37547533 378
252.6332181 41.2660164 377
253.9231161 41.15655747 376
255.8831288 41.15655747 376
257.8431415 41.15655747 376
260.49412 41.2660164 377
262.4593454 41.2660164 377
264.4245709 41.2660164 377
267.0964006 41.37547533 378
269.7786559 41.48493426 379
271.754307 41.48493426 379
273.729958 41.48493426 379
276.4330645 41.59439319 380
278.4139284 41.59439319 380
279.6569112 41.48493426 379
281.6325623 41.48493426 379
283.6082134 41.48493426 379
289.5351666 41.48493426 379
294.2608393 41.59439319 380
301.3890729 41.48493426 379
302.5642894 41.37547533 378
304.5347276 41.37547533 378
306.5051659 41.37547533 378
308.4756042 41.37547533 378
309.6247566 41.2660164 377
312.4164807 41.37547533 378
250.6679926 43.23124186 377
251.9631035 43.11657013 376
253.9231161 43.11657013 376
255.8831288 43.11657013 376
257.8431415 43.11657013 376
259.8031541 43.11657013 376
261.7631668 43.11657013 376
264.4245709 43.23124186 377
266.3897964 43.23124186 377
269.0668389 43.34591359 378
271.0372771 43.34591359 378
273.0077154 43.34591359 378
274.9781537 43.34591359 378
276.9485919 43.34591359 378
278.9190302 43.34591359 378
280.8894685 43.34591359 378
282.8599067 43.34591359 378
284.830345 43.34591359 378
286.8007833 43.34591359 378
288.7712215 43.34591359 378
290.7416598 43.34591359 378
292.7120981 43.34591359 378
294.6825363 43.34591359 378
298.6234128 43.34591359 378
300.5938511 43.34591359 378
301.7638548 43.23124186 377
303.7290802 43.23124186 377
305.6943057 43.23124186 377
307.6595311 43.23124186 377
309.6247566 43.23124186 377
311.5899821 43.23124186 377
250.0030908 45.0765828 376
251.9631035 45.0765828 376
253.9231161 45.0765828 376
255.8831288 45.0765828 376
257.8431415 45.0765828 376
259.8031541 45.0765828 376
261.7631668 45.0765828 376
264.4245709 45.19646733 377
266.3897964 45.19646733 377
269.0668389 45.31635186 378
271.0372771 45.31635186 378
273.0077154 45.31635186 378
274.9781537 45.31635186 378
276.9485919 45.31635186 378
278.1811492 45.19646733 377
280.1463746 45.19646733 377
282.1116001 45.19646733 377
284.0768256 45.19646733 377
286.8007833 45.31635186 378
288.0072765 45.19646733 377
289.972502 45.19646733 377
291.9377274 45.19646733 377
294.6825363 45.31635186 378
296.6529746 45.31635186 378
298.6234128 45.31635186 378
299.7986293 45.19646733 377
301.7638548 45.19646733 377
303.7290802 45.19646733 377
305.6943057 45.19646733 377
307.6595311 45.19646733 377
309.6247566 45.19646733 377
311.5899821 45.19646733 377
253.9231161 47.03659547 376
255.8831288 47.03659547 376
257.8431415 47.03659547 376
260.49412 47.16169279 377
262.4593454 47.16169279 377
264.4245709 47.16169279 377
266.3897964 47.16169279 377
268.3550218 47.16169279 377
271.0372771 47.28679012 378
273.0077154 47.28679012 378
274.2506982 47.16169279 377
276.2159237 47.16169279 377
278.1811492 47.16169279 377
280.1463746 47.16169279 377
282.1116001 47.16169279 377
284.0768256 47.16169279 377
286.042051 47.16169279 377
288.0072765 47.16169279 377
289.972502 47.16169279 377
291.9377274 47.16169279 377
296.6529746 47.28679012 378
298.6234128 47.28679012 378
299.7986293 47.16169279 377
301.7638548 47.16169279 377
303.7290802 47.16169279 377
304.8834455 47.03659547 376
307.6595311 47.16169279 377
309.6247566 47.16169279 377
311.5899821 47.16169279 377
253.9231161 48.99660813 376
255.8831288 48.99660813 376
257.8431415 48.99660813 376
260.49412 49.12691826 377
262.4593454 49.12691826 377
264.4245709 49.12691826 377
266.3897964 49.12691826 377
268.3550218 49.12691826 377
270.3202473 49.12691826 377
272.2854728 49.12691826 377
274.2506982 49.12691826 377
276.2159237 49.12691826 377
278.1811492 49.12691826 377
280.1463746 49.12691826 377
282.1116001 49.12691826 377
284.0768256 49.12691826 377
286.042051 49.12691826 377
288.0072765 49.12691826 377
289.972502 49.12691826 377
291.9377274 49.12691826 377
295.8681784 49.12691826 377
298.6234128 49.25722839 378
299.7986293 49.12691826 377
301.7638548 49.12691826 377
302.9234328 48.99660813 376
304.8834455 48.99660813 376
306.8434581 48.99660813 376
308.8034708 48.99660813 376
311.5899821 49.12691826 377
255.8831288 50.9566208 376
257.8431415 50.9566208 376
260.49412 51.09214373 377
262.4593454 51.09214373 377
264.4245709 51.09214373 377
266.3897964 51.09214373 377
268.3550218 51.09214373 377
270.3202473 51.09214373 377
272.2854728 51.09214373 377
274.2506982 51.09214373 377
276.2159237 51.09214373 377
278.1811492 51.09214373 377
280.1463746 51.09214373 377
282.1116001 51.09214373 377
284.0768256 51.09214373 377
286.042051 51.09214373 377
288.0072765 51.09214373 377
290.7416598 51.22766665 378
291.9377274 51.09214373 377
293.9029529 51.09214373 377
295.8681784 51.09214373 377
297.8334038 51.09214373 377
299.7986293 51.09214373 377
301.7638548 51.09214373 377
302.9234328 50.9566208 376
304.8834455 50.9566208 376
307.6595311 51.09214373 377
309.6247566 51.09214373 377
311.5899821 51.09214373 377
260.49412 53.05736919 377
262.4593454 53.05736919 377
264.4245709 53.05736919 377
266.3897964 53.05736919 377
268.3550218 53.05736919 377
270.3202473 53.05736919 377
272.2854728 53.05736919 377
274.2506982 53.05736919 377
275.4832555 52.91663346 376
277.4432681 52.91663346 376
280.1463746 53.05736919 377
282.1116001 53.05736919 377
284.0768256 53.05736919 377
286.042051 53.05736919 377
288.7712215 53.19810492 378
290.7416598 53.19810492 378
292.7120981 53.19810492 378
293.9029529 53.05736919 377
295.8681784 53.05736919 377
297.8334038 53.05736919 377
299.7986293 53.05736919 377
301.7638548 53.05736919 377
303.7290802 53.05736919 377
305.6943057 53.05736919 377
307.6595311 53.05736919 377
309.6247566 53.05736919 377
311.5899821 53.05736919 377
262.4593454 55.02259466 377
264.4245709 55.02259466 377
266.3897964 55.02259466 377
268.3550218 55.02259466 377
270.3202473 55.02259466 377
272.2854728 55.02259466 377
274.2506982 55.02259466 377
275.4832555 54.87664613 376
277.4432681 54.87664613 376
280.1463746 55.02259466 377
282.1116001 55.02259466 377
284.0768256 55.02259466 377
286.042051 55.02259466 377
288.0072765 55.02259466 377
289.972502 55.02259466 377
291.9377274 55.02259466 377
293.9029529 55.02259466 377
295.8681784 55.02259466 377
297.8334038 55.02259466 377
299.7986293 55.02259466 377
301.7638548 55.02259466 377
302.9234328 54.87664613 376
305.6943057 55.02259466 377
307.6595311 55.02259466 377
309.6247566 55.02259466 377
311.5899821 55.02259466 377
263.1555241 57.13898145 378
264.4245709 56.98782012 377
266.3897964 56.98782012 377
268.3550218 56.98782012 377
270.3202473 56.98782012 377
272.2854728 56.98782012 377
274.2506982 56.98782012 377
276.2159237 56.98782012 377
278.1811492 56.98782012 377
280.1463746 56.98782012 377
282.1116001 56.98782012 377
284.0768256 56.98782012 377
286.8007833 57.13898145 378
288.7712215 57.13898145 378
290.7416598 57.13898145 378
292.7120981 57.13898145 378
294.6825363 57.13898145 378
295.8681784 56.98782012 377
297.8334038 56.98782012 377
299.7986293 56.98782012 377
301.7638548 56.98782012 377
303.7290802 56.98782012 377
305.6943057 56.98782012 377
307.6595311 56.98782012 377
309.6247566 56.98782012 377
311.5899821 56.98782012 377
265.8273538 59.26579384 379
267.0964006 59.10941972 378
269.0668389 59.10941972 378
270.3202473 58.95304559 377
272.2854728 58.95304559 377
274.2506982 58.95304559 377
276.2159237 58.95304559 377
278.1811492 58.95304559 377
280.1463746 58.95304559 377
282.1116001 58.95304559 377
284.830345 59.10941972 378
286.8007833 59.10941972 378
288.7712215 59.10941972 378
290.7416598 59.10941972 378
292.7120981 59.10941972 378
294.6825363 59.10941972 378
296.6529746 59.10941972 378
298.6234128 59.10941972 378
300.5938511 59.10941972 378
302.5642894 59.10941972 378
304.5347276 59.10941972 378
306.5051659 59.10941972 378
308.4756042 59.10941972 378
310.4460424 59.10941972 378
312.4164807 59.10941972 378
262.6885312 62.37255339 386
264.0149188 62.21096646 385
269.7786559 61.24144491 379
271.0372771 61.07985798 378
273.0077154 61.07985798 378
274.9781537 61.07985798 378
276.2159237 60.91827106 377
278.1811492 60.91827106 377
280.8894685 61.07985798 378
282.8599067 61.07985798 378
284.830345 61.07985798 378
286.8007833 61.07985798 378
288.7712215 61.07985798 378
291.5108176 61.24144491 379
293.4864687 61.24144491 379
295.4621197 61.24144491 379
297.4377708 61.24144491 379
299.4134219 61.24144491 379
301.3890729 61.24144491 379
303.364724 61.24144491 379
305.3403751 61.24144491 379
307.3160261 61.24144491 379
309.2916772 61.24144491 379
311.2673283 61.24144491 379
313.2429793 61.24144491 379
261.3517179 64.55149378 387
262.6885312 64.38469405 386
264.7006718 64.38469405 386
266.7128125 64.38469405 386
271.754307 63.21709597 379
273.0077154 63.05029625 378
274.9781537 63.05029625 378
276.9485919 63.05029625 378
278.9190302 63.05029625 378
280.8894685 63.05029625 378
282.8599067 63.05029625 378
284.830345 63.05029625 378
286.8007833 63.05029625 378
288.7712215 63.05029625 378
291.5108176 63.21709597 379
293.4864687 63.21709597 379
295.4621197 63.21709597 379
297.4377708 63.21709597 379
299.4134219 63.21709597 379
301.3890729 63.21709597 379
303.364724 63.21709597 379
306.1460225 63.3838957 380
308.1268864 63.3838957 380
310.1077502 63.3838957 380
312.0886141 63.3838957 380
313.2429793 63.21709597 379
261.3517179 66.56884724 387
263.3690714 66.56884724 387
265.3864249 66.56884724 387
266.7128125 66.39683471 386
268.7249532 66.39683471 386
272.4713368 65.36475956 380
273.729958 65.19274704 379
275.7056091 65.19274704 379
276.9485919 65.02073451 378
278.9190302 65.02073451 378
280.8894685 65.02073451 378
283.6082134 65.19274704 379
285.5838644 65.19274704 379
287.5595155 65.19274704 379
289.5351666 65.19274704 379
291.5108176 65.19274704 379
293.4864687 65.19274704 379
296.2417032 65.36475956 380
298.222567 65.36475956 380
300.2034309 65.36475956 380
302.1842948 65.36475956 380
304.1651586 65.36475956 380
306.1460225 65.36475956 380
308.9377466 65.53677209 381
310.1077502 65.36475956 380
312.0886141 65.36475956 380
314.069478 65.36475956 380
259.3343645 68.5862007 387
261.3517179 68.5862007 387
263.3690714 68.5862007 387
265.3864249 68.5862007 387
267.4037783 68.5862007 387
269.4211318 68.5862007 387
270.7370938 68.40897538 386
275.1744433 67.52284875 381
276.4330645 67.34562343 380
277.6812602 67.1683981 379
279.6569112 67.1683981 379
281.6325623 67.1683981 379
283.6082134 67.1683981 379
285.5838644 67.1683981 379
288.3182477 67.34562343 380
289.5351666 67.1683981 379
292.2799754 67.34562343 380
294.2608393 67.34562343 380
296.2417032 67.34562343 380
299.0073633 67.52284875 381
300.9934399 67.52284875 381
302.9795166 67.52284875 381
304.9655933 67.52284875 381
306.9516699 67.52284875 381
308.9377466 67.52284875 381
310.9238233 67.52284875 381
312.9098999 67.52284875 381
314.8959766 67.52284875 381
259.3343645 70.60355416 387
261.3517179 70.60355416 387
263.3690714 70.60355416 387
265.3864249 70.60355416 387
267.4037783 70.60355416 387
269.4211318 70.60355416 387
271.4384852 70.60355416 387
272.7492345 70.42111604 386
279.1465966 69.50892542 381
280.3947923 69.32648729 380
282.3756561 69.32648729 380
284.35652 69.32648729 380
286.3373839 69.32648729 380
288.3182477 69.32648729 380
290.2991116 69.32648729 380
292.2799754 69.32648729 380
294.2608393 69.32648729 380
296.2417032 69.32648729 380
299.0073633 69.50892542 381
300.9934399 69.50892542 381
302.9795166 69.50892542 381
304.9655933 69.50892542 381
306.9516699 69.50892542 381
309.7486068 69.69136354 382
310.9238233 69.50892542 381
312.9098999 69.50892542 381
314.8959766 69.50892542 381
259.3343645 72.62090762 387
261.3517179 72.62090762 387
263.3690714 72.62090762 387
265.3864249 72.62090762 387
267.4037783 72.62090762 387
269.4211318 72.62090762 387
271.4384852 72.62090762 387
273.4558387 72.62090762 387
275.4731922 72.62090762 387
281.1326733 71.49500208 381
283.11875 71.49500208 381
284.35652 71.30735116 380
286.3373839 71.30735116 380
288.3182477 71.30735116 380
290.2991116 71.30735116 380
292.2799754 71.30735116 380
294.2608393 71.30735116 380
297.0212866 71.49500208 381
299.0073633 71.49500208 381
300.9934399 71.49500208 381
302.9795166 71.49500208 381
304.9655933 71.49500208 381
307.7573174 71.682653 382
309.7486068 71.682653 382
311.7398963 71.682653 382
313.7311857 71.682653 382
315.7224752 71.682653 382
262.0270454 74.83112481 388
264.0496116 74.83112481 388
266.0721779 74.83112481 388
268.0947442 74.83112481 388
270.1173104 74.83112481 388
272.1398767 74.83112481 388
274.1624429 74.83112481 388
275.4731922 74.63826109 387
281.1326733 73.48107874 381
283.11875 73.48107874 381
285.1048266 73.48107874 381
287.0909033 73.48107874 381
289.0769799 73.48107874 381
291.0630566 73.48107874 381
293.0491333 73.48107874 381
295.0352099 73.48107874 381
297.0212866 73.48107874 381
299.0073633 73.48107874 381
300.9934399 73.48107874 381
302.9795166 73.48107874 381
304.9655933 73.48107874 381
307.7573174 73.67394247 382
309.7486068 73.67394247 382
311.7398963 73.67394247 382
313.7311857 73.67394247 382
316.5489738 73.86680619 383
261.3517179 76.65561455 387
264.0496116 76.85369107 388
266.0721779 76.85369107 388
268.0947442 76.85369107 388
270.1173104 76.85369107 388
272.1398767 76.85369107 388
274.1624429 76.85369107 388
276.1850092 76.85369107 388
277.4905456 76.65561455 387
280.2301417 76.85369107 388
283.8618438 75.66523193 382
285.1048266 75.46715541 381
287.0909033 75.46715541 381
289.0769799 75.46715541 381
291.0630566 75.46715541 381
293.0491333 75.46715541 381
295.0352099 75.46715541 381
297.0212866 75.46715541 381
299.0073633 75.46715541 381
300.9934399 75.46715541 381
303.7747384 75.66523193 382
305.7660279 75.66523193 382
307.7573174 75.66523193 382
309.7486068 75.66523193 382
312.5559693 75.86330846 383
314.5524716 75.86330846 383
316.5489738 75.86330846 383
260.6763905 78.46967869 386
263.3690714 78.67296801 387
266.0721779 78.87625733 388
268.78571 79.07954666 389
270.8134891 79.07954666 389
272.8412681 79.07954666 389
274.8690472 79.07954666 389
276.8968262 79.07954666 389
278.9246053 79.07954666 389
280.9523844 79.07954666 389
282.252708 78.87625733 388
287.0909033 77.45323207 381
289.0769799 77.45323207 381
291.0630566 77.45323207 381
293.8182911 77.6565214 382
295.8095806 77.6565214 382
297.80087 77.6565214 382
299.7921595 77.6565214 382
301.783449 77.6565214 382
303.7747384 77.6565214 382
305.7660279 77.6565214 382
307.7573174 77.6565214 382
310.559467 77.85981072 383
312.5559693 77.85981072 383
314.5524716 77.85981072 383
317.3754725 78.06310004 384
263.3690714 80.69032147 387
266.0721779 80.8988236 388
268.78571 81.10732572 389
270.8134891 81.10732572 389
272.8412681 81.10732572 389
274.8690472 81.10732572 389
276.8968262 81.10732572 389
281.674627 81.31582784 390
282.9801634 81.10732572 389
289.0769799 79.43930874 381
291.8270016 79.64781086 382
293.8182911 79.64781086 382
295.8095806 79.64781086 382
297.80087 79.64781086 382
299.7921595 79.64781086 382
301.783449 79.64781086 382
303.7747384 79.64781086 382
305.7660279 79.64781086 382
307.7573174 79.64781086 382
310.559467 79.85631298 383
312.5559693 79.85631298 383
314.5524716 79.85631298 383
317.3754725 80.06481511 384
266.0721779 82.92138986 388
268.78571 83.13510478 389
270.8134891 83.13510478 389
273.5426596 83.3488197 390
275.5756514 83.3488197 390
277.6086433 83.3488197 390
279.6416351 83.3488197 390
281.674627 83.3488197 390
283.7076189 83.3488197 390
285.0079425 83.13510478 389
289.0769799 81.4253854 381
291.8270016 81.63910032 382
293.8182911 81.63910032 382
295.8095806 81.63910032 382
297.80087 81.63910032 382
299.7921595 81.63910032 382
301.783449 81.63910032 382
303.7747384 81.63910032 382
305.7660279 81.63910032 382
308.5629648 81.85281525 383
