# .PCD v0.7 - Point Cloud Data file format
VERSION 0.7
FIELDS x y z
SIZE 4 4 4
TYPE F F F
COUNT 1 1 1
WIDTH 1662
HEIGHT 1
VIEWPOINT 0 0 0 1 0 0 0
POINTS 1662
DATA ascii
61.89650203 -170.1905206 308
63.50204432 -170.1905206 308
65.10758661 -170.1905206 308
66.49652784 -169.637954 307
68.09685733 -169.637954 307
69.47016015 -169.0853874 306
71.06527684 -169.0853874 306
72.66039353 -169.0853874 306
74.25551022 -169.0853874 306
75.85062691 -169.0853874 306
77.19265294 -168.5328207 305
78.78255683 -168.5328207 305
80.37246072 -168.5328207 305
81.96236461 -168.5328207 305
83.55226851 -168.5328207 305
85.1421724 -168.5328207 305
86.73207629 -168.5328207 305
88.32198018 -168.5328207 305
89.91188407 -168.5328207 305
91.50178796 -168.5328207 305
93.09169185 -168.5328207 305
94.68159575 -168.5328207 305
96.27149964 -168.5328207 305
97.86140353 -168.5328207 305
99.45130742 -168.5328207 305
100.7099287 -167.9802541 304
102.2946197 -167.9802541 304
103.8793108 -167.9802541 304
105.4640019 -167.9802541 304
106.6965592 -167.4276875 303
28.2139121 -178.984701 327
29.73550984 -177.8899934 325
31.33296304 -177.3426395 324
33.02191013 -177.3426395 324
34.71085721 -177.3426395 324
36.28745922 -176.7952857 323
37.97119351 -176.7952857 323
39.65492779 -176.7952857 323
41.2106786 -176.2479319 322
42.88920009 -176.2479319 322
57.26519943 -169.1323321 309
58.87595452 -169.1323321 309
60.48670961 -169.1323321 309
62.0974647 -169.1323321 309
63.50204432 -168.5849783 308
65.10758661 -168.5849783 308
66.7131289 -168.5849783 308
68.09685733 -168.0376245 307
69.69718682 -168.0376245 307
71.29751631 -168.0376245 307
72.66039353 -167.4902707 306
74.25551022 -167.4902707 306
75.85062691 -167.4902707 306
77.44574361 -167.4902707 306
79.0408603 -167.4902707 306
80.63597699 -167.4902707 306
81.96236461 -166.9429168 305
83.55226851 -166.9429168 305
85.1421724 -166.9429168 305
86.73207629 -166.9429168 305
88.32198018 -166.9429168 305
89.91188407 -166.9429168 305
91.50178796 -166.9429168 305
93.09169185 -166.9429168 305
94.68159575 -166.9429168 305
96.27149964 -166.9429168 305
97.86140353 -166.9429168 305
99.45130742 -166.9429168 305
100.7099287 -166.395563 304
102.2946197 -166.395563 304
105.4640019 -166.395563 304
106.6965592 -165.8482092 303
29.64401596 -175.6536924 324
31.33296304 -175.6536924 324
33.02191013 -175.6536924 324
34.71085721 -175.6536924 324
36.28745922 -175.1115514 323
37.97119351 -175.1115514 323
39.65492779 -175.1115514 323
41.33866208 -175.1115514 323
42.88920009 -174.5694104 322
55.65444434 -167.5215771 309
57.26519943 -167.5215771 309
59.06649159 -168.0637181 310
60.68245948 -168.0637181 310
62.0974647 -167.5215771 309
63.70821979 -167.5215771 309
65.10758661 -166.979436 308
66.7131289 -166.979436 308
68.31867119 -166.979436 308
69.69718682 -166.437295 307
71.29751631 -166.437295 307
72.8978458 -166.437295 307
74.49817529 -166.437295 307
76.09850478 -166.437295 307
77.44574361 -165.895154 306
79.0408603 -165.895154 306
80.63597699 -165.895154 306
82.23109368 -165.895154 306
83.82621037 -165.895154 306
85.42132706 -165.895154 306
87.01644375 -165.895154 306
88.61156044 -165.895154 306
90.20667713 -165.895154 306
91.80179382 -165.895154 306
93.39691052 -165.895154 306
94.68159575 -165.3530129 305
96.27149964 -165.3530129 305
97.86140353 -165.3530129 305
99.45130742 -165.3530129 305
100.7099287 -164.8108719 304
102.2946197 -164.8108719 304
103.8793108 -164.8108719 304
105.4640019 -164.8108719 304
106.6965592 -164.2687309 303
29.64401596 -173.9647454 324
31.33296304 -173.9647454 324
33.02191013 -173.9647454 324
34.71085721 -173.9647454 324
36.28745922 -173.4278171 323
37.97119351 -173.4278171 323
39.65492779 -173.4278171 323
41.33866208 -173.4278171 323
42.88920009 -172.8908889 322
55.83455581 -166.4477502 310
57.4505237 -166.4477502 310
59.06649159 -166.4477502 310
60.68245948 -166.4477502 310
62.29842737 -166.4477502 310
63.70821979 -165.910822 309
65.31897488 -165.910822 309
66.92972997 -165.910822 309
68.31867119 -165.3738937 308
69.92421348 -165.3738937 308
71.52975577 -165.3738937 308
72.8978458 -164.8369655 307
74.49817529 -164.8369655 307
76.09850478 -164.8369655 307
77.69883427 -164.8369655 307
79.0408603 -164.3000373 306
80.63597699 -164.3000373 306
82.23109368 -164.3000373 306
83.82621037 -164.3000373 306
85.42132706 -164.3000373 306
87.01644375 -164.3000373 306
88.61156044 -164.3000373 306
90.20667713 -164.3000373 306
91.80179382 -164.3000373 306
93.39691052 -164.3000373 306
94.99202721 -164.3000373 306
96.5871439 -164.3000373 306
105.810923 -163.7631091 305
29.64401596 -172.2757983 324
31.33296304 -172.2757983 324
33.02191013 -172.2757983 324
34.71085721 -172.2757983 324
36.28745922 -171.7440828 323
37.97119351 -171.7440828 323
39.65492779 -171.7440828 323
41.33866208 -171.7440828 323
42.88920009 -171.2123674 322
57.63584797 -165.3634977 311
59.25702866 -165.3634977 311
60.87820935 -165.3634977 311
62.49939004 -165.3634977 311
64.12057073 -165.3634977 311
65.53036315 -164.8317823 310
68.76229893 -164.8317823 310
70.15124015 -164.3000669 309
71.76199524 -164.3000669 309
73.37275033 -164.3000669 309
74.74084036 -163.7683514 308
76.34638265 -163.7683514 308
77.69883427 -163.236636 307
79.29916376 -163.236636 307
80.89949325 -163.236636 307
82.49982274 -163.236636 307
84.10015223 -163.236636 307
85.70048172 -163.236636 307
87.30081121 -163.236636 307
88.90114071 -163.236636 307
90.5014702 -163.236636 307
34.71085721 -170.5868512 324
36.3998043 -170.5868512 324
37.97119351 -170.0603486 323
39.65492779 -170.0603486 323
65.74175142 -163.742317 311
67.36293211 -163.742317 311
68.76229893 -163.2158144 310
70.37826682 -163.2158144 310
71.76199524 -162.6893118 309
73.37275033 -162.6893118 309
74.98350542 -162.6893118 309
76.34638265 -162.1628092 308
77.95192494 -162.1628092 308
79.55746723 -162.1628092 308
80.89949325 -161.6363065 307
82.49982274 -161.6363065 307
84.10015223 -161.6363065 307
85.70048172 -161.6363065 307
87.30081121 -161.6363065 307
88.90114071 -161.6363065 307
90.5014702 -161.6363065 307
38.08875138 -168.8979041 324
53.79042113 -165.2488753 317
55.26797995 -164.7275855 316
56.91522463 -164.7275855 316
58.37714505 -164.2062957 315
60.01917694 -164.2062957 315
61.26970909 -163.163716 313
62.90131538 -163.163716 313
64.53292167 -163.163716 313
65.95313969 -162.6424262 312
67.36293211 -162.1211363 311
68.76229893 -161.5998465 310
70.37826682 -161.5998465 310
71.99423471 -161.5998465 310
73.6102026 -161.5998465 310
74.98350542 -161.0785567 309
76.59426051 -161.0785567 309
77.95192494 -160.5572669 308
79.55746723 -160.5572669 308
81.16300952 -160.5572669 308
82.49982274 -160.035977 307
84.10015223 -160.035977 307
85.70048172 -160.035977 307
87.30081121 -160.035977 307
88.90114071 -160.035977 307
90.5014702 -160.035977 307
92.10179969 -160.035977 307
111.849504 -163.163716 313
113.4811103 -163.163716 313
38.08875138 -167.208957 324
53.960107 -164.1124949 318
55.61777729 -164.1124949 318
57.0953361 -163.5964178 317
58.74779359 -163.5964178 317
60.01917694 -162.5642638 315
61.66120883 -162.5642638 315
63.10227805 -162.0481867 314
64.53292167 -161.5321097 313
66.16452795 -161.5321097 313
67.57953318 -161.0160327 312
68.9841128 -160.4999557 311
70.60529349 -160.4999557 311
71.99423471 -159.9838786 310
73.6102026 -159.9838786 310
74.98350542 -159.4678016 309
76.59426051 -159.4678016 309
78.2050156 -159.4678016 309
79.81577069 -159.4678016 309
81.16300952 -158.9517246 308
82.76855181 -158.9517246 308
84.3740941 -158.9517246 308
85.70048172 -158.4356475 307
87.30081121 -158.4356475 307
88.90114071 -158.4356475 307
90.5014702 -158.4356475 307
92.10179969 -158.4356475 307
93.70212918 -158.4356475 307
95.30245867 -158.4356475 307
96.90278816 -158.4356475 307
98.50311765 -158.4356475 307
100.1034471 -158.4356475 307
102.366342 -159.4678016 309
110.2178977 -161.5321097 313
111.849504 -161.5321097 313
113.4811103 -161.5321097 313
38.08875138 -165.5200099 324
39.77769847 -165.5200099 324
41.46664555 -165.5200099 324
47.92476454 -164.4982815 322
49.44923856 -163.9874172 321
51.12254724 -163.9874172 321
52.63138286 -163.476553 320
54.12979287 -162.9656888 319
55.61777729 -162.4548246 318
57.27544758 -162.4548246 318
58.93311786 -162.4548246 318
60.40025108 -161.9439603 317
61.8569587 -161.4330961 316
63.70516605 -161.9439603 317
65.15144807 -161.4330961 316
66.58730449 -160.9222319 315
67.79613424 -159.9005034 313
69.42774053 -159.9005034 313
70.83232015 -159.3896392 312
72.22647418 -158.878775 311
73.84765486 -158.878775 311
75.22617049 -158.3679107 310
76.84213838 -158.3679107 310
78.2050156 -157.8570465 309
79.81577069 -157.8570465 309
81.42652578 -157.8570465 309
83.03728087 -157.8570465 309
84.64803596 -157.8570465 309
85.97963639 -157.3461823 308
87.58517868 -157.3461823 308
89.19072097 -157.3461823 308
90.79626326 -157.3461823 308
92.10179969 -156.8353181 307
93.70212918 -156.8353181 307
95.30245867 -156.8353181 307
96.90278816 -156.8353181 307
98.50311765 -156.8353181 307
100.1034471 -156.8353181 307
102.366342 -157.8570465 309
108.5862915 -159.9005034 313
110.2178977 -159.9005034 313
112.2068507 -160.4113677 314
113.4811103 -159.9005034 313
39.77769847 -163.8310628 324
41.46664555 -163.8310628 324
43.15559264 -163.8310628 324
46.38986493 -163.3254114 323
47.92476454 -162.81976 322
49.44923856 -162.3141086 321
51.12254724 -162.3141086 321
52.63138286 -161.8084571 320
54.29947874 -161.8084571 320
55.79267596 -161.3028057 319
57.45555905 -161.3028057 319
59.11844213 -161.3028057 319
60.59078815 -160.7971543 318
62.24845844 -160.7971543 318
63.70516605 -160.2915028 317
65.35762354 -160.2915028 317
66.79869276 -159.7858514 316
68.01273531 -158.7745486 314
69.42774053 -158.2688971 313
71.05934682 -158.2688971 313
72.45871364 -157.7632457 312
73.84765486 -157.2575943 311
75.22617049 -156.7519428 310
76.84213838 -156.7519428 310
78.45810627 -156.7519428 310
80.07407416 -156.7519428 310
81.42652578 -156.2462914 309
83.03728087 -156.2462914 309
84.64803596 -156.2462914 309
86.25879105 -156.2462914 309
87.58517868 -155.74064 308
89.19072097 -155.74064 308
90.79626326 -155.74064 308
92.40180555 -155.74064 308
93.70212918 -155.2349886 307
96.90278816 -155.2349886 307
98.50311765 -155.2349886 307
100.429517 -155.74064 308
106.6129769 -157.7632457 312
108.5862915 -158.2688971 313
110.5700316 -158.7745486 314
112.2068507 -158.7745486 314
113.8436698 -158.7745486 314
115.1127166 -158.2688971 313
39.77769847 -162.1421158 324
41.46664555 -162.1421158 324
43.15559264 -162.1421158 324
44.70613065 -161.6416771 323
46.38986493 -161.6416771 323
47.92476454 -161.1412385 322
49.60328603 -161.1412385 322
51.28180752 -161.1412385 322
52.79585593 -160.6407999 321
54.29947874 -160.1403612 320
55.96757463 -160.1403612 320
57.63567052 -160.1403612 320
59.3037664 -160.1403612 320
60.78132522 -159.6399226 319
62.4442083 -159.6399226 319
63.90612872 -159.139484 318
65.56379901 -159.139484 318
66.79869276 -158.1386067 316
68.22933638 -157.6381681 315
69.6495544 -157.1377295 314
71.28637349 -157.1377295 314
72.69095311 -156.6372908 313
74.08510713 -156.1368522 312
75.46883555 -155.6364136 311
77.09001624 -155.6364136 311
78.45810627 -155.135975 310
80.07407416 -155.135975 310
81.69004205 -155.135975 310
83.03728087 -154.6355363 309
84.64803596 -154.6355363 309
86.25879105 -154.6355363 309
87.86954614 -154.6355363 309
89.48030123 -154.6355363 309
90.79626326 -154.1350977 308
92.40180555 -154.1350977 308
94.00734784 -154.1350977 308
95.30245867 -153.6346591 307
96.90278816 -153.6346591 307
98.82397471 -154.1350977 308
100.429517 -154.1350977 308
102.6976246 -155.135975 310
104.650088 -155.6364136 311
106.6129769 -156.1368522 312
108.9332125 -157.1377295 314
110.5700316 -157.1377295 314
112.2068507 -157.1377295 314
113.8436698 -157.1377295 314
115.4804889 -157.1377295 314
34.81798949 -160.9483945 325
36.51214937 -160.9483945 325
38.20630926 -160.9483945 325
39.77769847 -160.4531687 324
41.46664555 -160.4531687 324
43.15559264 -160.4531687 324
44.70613065 -159.9579428 323
46.38986493 -159.9579428 323
47.92476454 -159.462717 322
49.60328603 -159.462717 322
51.28180752 -159.462717 322
52.79585593 -158.9674912 321
54.46916461 -158.9674912 321
56.1424733 -158.9674912 321
57.63567052 -158.4722654 320
59.3037664 -158.4722654 320
60.97186229 -158.4722654 320
62.4442083 -157.9770395 319
64.10709139 -157.9770395 319
65.76997448 -157.9770395 319
67.01008103 -156.9865879 317
68.44593745 -156.491362 316
69.87136827 -155.9961362 315
71.51340015 -155.9961362 315
72.92319258 -155.5009104 314
74.3225594 -155.0056846 313
75.71150062 -154.5104587 312
77.09001624 -154.0152329 311
78.71119693 -154.0152329 311
80.33237762 -154.0152329 311
81.69004205 -153.5200071 310
83.30600994 -153.5200071 310
84.64803596 -153.0247812 309
86.25879105 -153.0247812 309
87.86954614 -153.0247812 309
89.48030123 -153.0247812 309
91.09105632 -153.0247812 309
92.40180555 -152.5295554 308
94.00734784 -152.5295554 308
95.61289013 -152.5295554 308
97.21843242 -152.5295554 308
98.82397471 -152.5295554 308
100.7555869 -153.0247812 309
103.0289073 -154.0152329 311
104.650088 -154.0152329 311
106.6129769 -154.5104587 312
108.9332125 -155.5009104 314
110.5700316 -155.5009104 314
112.5641974 -155.9961362 315
113.8436698 -155.5009104 314
115.4804889 -155.5009104 314
34.81798949 -159.2542346 325
36.51214937 -159.2542346 325
38.08875138 -158.7642216 324
39.77769847 -158.7642216 324
41.46664555 -158.7642216 324
43.15559264 -158.7642216 324
44.70613065 -158.2742086 323
46.38986493 -158.2742086 323
48.07359922 -158.2742086 323
49.60328603 -157.7841955 322
51.28180752 -157.7841955 322
52.960329 -157.7841955 322
54.63885049 -157.7841955 322
56.1424733 -157.2941825 321
57.81578199 -157.2941825 321
59.48909067 -157.2941825 321
60.97186229 -156.8041695 320
62.63995817 -156.8041695 320
64.30805406 -156.8041695 320
65.97614995 -156.8041695 320
67.43285756 -156.3141564 319
68.87913958 -155.8241434 318
70.314996 -155.3341304 317
71.96745349 -155.3341304 317
73.38767151 -154.8441174 316
74.79746393 -154.3541043 315
76.19683075 -153.8640913 314
77.83364984 -153.8640913 314
79.21737826 -153.3740783 313
80.84898455 -153.3740783 313
82.21707458 -152.8840652 312
83.84346806 -152.8840652 312
85.19591969 -152.3940522 311
86.81710038 -152.3940522 311
88.1539136 -151.9040392 310
89.76988149 -151.9040392 310
91.38584938 -151.9040392 310
92.70181141 -151.4140262 309
94.3125665 -151.4140262 309
95.92332159 -151.4140262 309
97.53407668 -151.4140262 309
99.14483177 -151.4140262 309
101.0816567 -151.9040392 310
103.0289073 -152.3940522 311
104.9865834 -152.8840652 312
106.9546852 -153.3740783 313
108.9332125 -153.8640913 314
112.5641974 -154.3541043 315
114.2062292 -154.3541043 315
115.8482611 -154.3541043 315
34.81798949 -157.5600747 325
36.51214937 -157.5600747 325
38.20630926 -157.5600747 325
39.90046914 -157.5600747 325
41.46664555 -157.0752745 324
43.15559264 -157.0752745 324
44.84453972 -157.0752745 324
46.38986493 -156.5904743 323
48.07359922 -156.5904743 323
49.7573335 -156.5904743 323
51.44106779 -156.5904743 323
52.960329 -156.1056741 322
54.63885049 -156.1056741 322
56.31737197 -156.1056741 322
57.99589346 -156.1056741 322
59.67441494 -156.1056741 322
61.16239936 -155.6208738 321
62.83570804 -155.6208738 321
64.50901673 -155.6208738 321
65.97614995 -155.1360736 320
67.64424583 -155.1360736 320
69.09574065 -154.6512734 319
70.53680987 -154.1664731 318
72.19448016 -154.1664731 318
73.61991098 -153.6816729 317
75.0349162 -153.1968727 316
76.68216088 -153.1968727 316
78.08152771 -152.7120724 315
79.72355959 -152.7120724 315
80.84898455 -151.742472 313
82.48059084 -151.742472 313
84.11219713 -151.742472 313
85.46986155 -151.2576718 312
86.81710038 -150.7728715 311
88.43828107 -150.7728715 311
90.05946176 -150.7728715 311
91.38584938 -150.2880713 310
93.00181727 -150.2880713 310
94.3125665 -149.8032711 309
95.92332159 -149.8032711 309
97.53407668 -149.8032711 309
99.14483177 -149.8032711 309
101.0816567 -150.2880713 310
103.3601899 -151.2576718 312
105.3230789 -151.742472 313
106.9546852 -151.742472 313
109.2801336 -152.7120724 315
110.9221655 -152.7120724 315
112.5641974 -152.7120724 315
114.2062292 -152.7120724 315
36.62449445 -156.3455023 326
38.20630926 -155.8659149 325
39.90046914 -155.8659149 325
41.46664555 -155.3863274 324
43.15559264 -155.3863274 324
44.84453972 -155.3863274 324
46.38986493 -154.90674 323
48.07359922 -154.90674 323
49.7573335 -154.90674 323
51.44106779 -154.90674 323
53.12480207 -154.90674 323
54.80853636 -154.90674 323
56.31737197 -154.4271526 322
57.99589346 -154.4271526 322
59.67441494 -154.4271526 322
61.35293643 -154.4271526 322
62.83570804 -153.9475651 321
64.50901673 -153.9475651 321
66.18232541 -153.9475651 321
67.64424583 -153.4679777 320
69.31234172 -153.4679777 320
70.75862374 -152.9883903 319
72.42150682 -152.9883903 319
73.85215044 -152.5088028 318
75.27236846 -152.0292154 317
76.92482595 -152.0292154 317
78.32940557 -151.549628 316
79.97665026 -151.549628 316
81.36559148 -151.0700406 315
84.38092619 -150.5904531 314
85.74380342 -150.1108657 313
87.09625504 -149.6312783 312
88.72264853 -149.6312783 312
90.34904202 -149.6312783 312
91.68064245 -149.1516908 311
93.30182314 -149.1516908 311
94.61778516 -148.6721034 310
96.23375305 -148.6721034 310
97.84972094 -148.6721034 310
99.46568883 -148.6721034 310
101.4077266 -149.1516908 311
103.3601899 -149.6312783 312
105.3230789 -150.1108657 313
107.2963934 -150.5904531 314
109.2801336 -151.0700406 315
110.9221655 -151.0700406 315
112.5641974 -151.0700406 315
114.2062292 -151.0700406 315
116.2160334 -151.549628 316
35.24651859 -156.0692535 329
36.8491846 -155.5948789 328
38.44142501 -155.1205042 327
40.02323982 -154.6461296 326
41.59462903 -154.171755 325
43.28878891 -154.171755 325
46.53348681 -153.6973803 324
48.07359922 -153.2230057 323
49.7573335 -153.2230057 323
51.44106779 -153.2230057 323
53.12480207 -153.2230057 323
54.80853636 -153.2230057 323
56.49227064 -153.2230057 323
57.99589346 -152.7486311 322
59.67441494 -152.7486311 322
61.35293643 -152.7486311 322
63.03145791 -152.7486311 322
64.50901673 -152.2742564 321
66.18232541 -152.2742564 321
67.8556341 -152.2742564 321
69.31234172 -151.7998818 320
70.9804376 -151.7998818 320
72.64853349 -151.7998818 320
74.08438991 -151.3255072 319
75.50982073 -150.8511326 318
77.16749102 -150.8511326 318
78.8251613 -150.8511326 318
80.22974092 -150.3767579 317
81.62389495 -149.9023833 316
83.00762337 -149.4280087 315
84.38092619 -148.953634 314
85.74380342 -148.4792594 313
87.37540971 -148.4792594 313
89.00701599 -148.4792594 313
90.34904202 -148.0048848 312
91.97543551 -148.0048848 312
93.601829 -148.0048848 312
94.61778516 -147.0561355 310
96.23375305 -147.0561355 310
97.84972094 -147.0561355 310
101.7337964 -148.0048848 312
103.6914726 -148.4792594 313
105.6595743 -148.953634 314
107.6381017 -149.4280087 315
109.6270546 -149.9023833 316
111.2742993 -149.9023833 316
112.921544 -149.9023833 316
35.46078314 -155.2925661 331
37.07387475 -154.8234042 330
38.67654076 -154.3542424 329
40.26878116 -153.8850806 328
41.85059597 -153.4159187 327
43.42198518 -152.9467569 326
46.53348681 -152.0084333 324
48.22243389 -152.0084333 324
49.91138097 -152.0084333 324
51.44106779 -151.5392714 323
53.12480207 -151.5392714 323
54.80853636 -151.5392714 323
56.49227064 -151.5392714 323
58.17600493 -151.5392714 323
59.67441494 -151.0701096 322
61.35293643 -151.0701096 322
63.03145791 -151.0701096 322
64.7099794 -151.0701096 322
66.38850088 -151.0701096 322
67.8556341 -150.6009478 321
69.52894279 -150.6009478 321
71.20225147 -150.6009478 321
72.87556016 -150.6009478 321
74.31662938 -150.1317859 320
75.98472526 -150.1317859 320
77.65282115 -150.1317859 320
79.07303917 -149.6626241 319
80.48283159 -149.1934623 318
82.14050188 -149.1934623 318
83.5346559 -148.7243004 317
84.91838432 -148.2551386 316
86.29168715 -147.7859768 315
87.93371903 -147.7859768 315
89.29138346 -147.3168149 314
90.92820255 -147.3168149 314
92.27022857 -146.8476531 313
104.0227553 -147.3168149 314
105.9960698 -147.7859768 315
107.6381017 -147.7859768 315
109.6270546 -148.2551386 316
111.2742993 -148.2551386 316
32.39673648 -155.4229255 335
34.04110489 -154.9589765 334
35.78217997 -154.9589765 334
37.41090997 -154.4950275 333
39.02921438 -154.0310784 332
48.52010323 -151.2473842 326
50.06542845 -150.7834352 325
51.60032806 -150.3194862 324
53.28927514 -150.3194862 324
54.97822223 -150.3194862 324
56.49227064 -149.8555371 323
58.17600493 -149.8555371 323
59.85973921 -149.8555371 323
61.5434735 -149.8555371 323
63.03145791 -149.3915881 322
64.7099794 -149.3915881 322
66.38850088 -149.3915881 322
68.06702237 -149.3915881 322
69.74554385 -149.3915881 322
71.42406534 -149.3915881 322
72.87556016 -148.9276391 321
74.54886884 -148.9276391 321
76.22217753 -148.9276391 321
77.65282115 -148.46369 320
79.32091703 -148.46369 320
80.73592226 -147.999741 319
82.39880534 -147.999741 319
83.79817216 -147.535792 318
85.18711339 -147.071843 317
86.56562901 -146.6078939 316
87.93371903 -146.1439449 315
89.57575092 -146.1439449 315
90.92820255 -145.6799959 314
92.56502163 -145.6799959 314
94.20184072 -145.6799959 314
104.3540379 -146.1439449 315
106.3325653 -146.6078939 316
107.9798099 -146.6078939 316
109.9739757 -147.071843 317
111.6264332 -147.071843 317
113.2788907 -147.071843 317
30.74194248 -154.1353739 336
32.39673648 -153.6766376 335
34.14302436 -153.6766376 335
35.88931224 -153.6766376 335
37.52325505 -153.2179014 334
39.14677225 -152.7591652 333
48.81777258 -150.465484 328
50.21947592 -149.5480116 326
51.75958833 -149.0892753 325
53.28927514 -148.6305391 324
54.97822223 -148.6305391 324
56.49227064 -148.1718029 323
58.3561164 -148.6305391 324
59.85973921 -148.1718029 323
61.5434735 -148.1718029 323
63.22720778 -148.1718029 323
64.91094207 -148.1718029 323
66.59467635 -148.1718029 323
68.27841064 -148.1718029 323
69.74554385 -147.7130666 322
71.42406534 -147.7130666 322
73.10258682 -147.7130666 322
74.78110831 -147.7130666 322
76.22217753 -147.2543304 321
77.89548621 -147.2543304 321
79.5687949 -147.2543304 321
80.98901292 -146.7955942 320
82.39880534 -146.3368579 319
84.06168843 -146.3368579 319
85.45584245 -145.8781217 318
86.83957087 -145.4193855 317
88.49202836 -145.4193855 317
89.86011838 -144.9606492 316
91.50736307 -144.9606492 316
93.15460776 -144.9606492 316
94.50184658 -144.501913 315
102.712006 -144.501913 315
104.6853206 -144.9606492 316
106.6690607 -145.4193855 317
108.3215182 -145.4193855 317
109.9739757 -145.4193855 317
111.6264332 -145.4193855 317
113.2788907 -145.4193855 317
30.74194248 -152.3838732 336
32.49344316 -152.3838732 336
34.24494384 -152.3838732 336
35.88931224 -151.9303498 335
37.63560012 -151.9303498 335
39.26433013 -151.4768263 334
41.00540521 -151.4768263 334
44.22116282 -150.5697795 332
50.52757086 -148.7556857 328
51.9188486 -147.8486389 326
53.45374822 -147.3951154 325
55.1479081 -147.3951154 325
56.66716931 -146.941592 324
58.3561164 -146.941592 324
60.04506348 -146.941592 324
61.73401057 -146.941592 324
63.42295765 -146.941592 324
64.91094207 -146.4880686 323
66.59467635 -146.4880686 323
68.27841064 -146.4880686 323
69.96214492 -146.4880686 323
71.64587921 -146.4880686 323
73.10258682 -146.0345451 322
74.78110831 -146.0345451 322
76.4596298 -146.0345451 322
78.13815128 -146.0345451 322
79.5687949 -145.5810217 321
81.24210359 -145.5810217 321
82.65710881 -145.1274983 320
84.32520469 -145.1274983 320
85.72457151 -144.6739748 319
87.11351274 -144.2204514 318
88.77118302 -144.2204514 318
90.42885331 -144.2204514 318
92.0865236 -144.2204514 318
93.74419388 -144.2204514 318
105.6791686 -144.6739748 319
107.3420516 -144.6739748 319
109.0049347 -144.6739748 319
110.6678178 -144.6739748 319
112.3307009 -144.6739748 319
114.3509306 -145.1274983 320
30.83343635 -151.0806831 337
32.59014983 -151.0806831 337
34.24494384 -150.6323725 336
35.99644452 -150.6323725 336
37.63560012 -150.1840619 335
39.381888 -150.1840619 335
41.12817588 -150.1840619 335
42.74648029 -149.7357512 334
44.3543591 -149.2874406 333
46.09022138 -149.2874406 333
50.68161834 -147.4941981 329
51.9188486 -146.1492662 326
53.61822129 -146.1492662 326
55.1479081 -145.7009556 325
56.84206798 -145.7009556 325
58.53622787 -145.7009556 325
60.23038775 -145.7009556 325
61.73401057 -145.2526449 324
63.42295765 -145.2526449 324
65.3128674 -145.7009556 325
66.80085182 -145.2526449 324
68.48979891 -145.2526449 324
70.17874599 -145.2526449 324
71.86769307 -145.2526449 324
73.32961349 -144.8043343 323
75.01334778 -144.8043343 323
76.69708206 -144.8043343 323
78.38081635 -144.8043343 323
79.81667277 -144.3560237 322
81.49519425 -144.3560237 322
83.17371574 -144.3560237 322
84.85223722 -144.3560237 322
86.53075871 -144.3560237 322
91.2819557 -143.907713 321
92.95526439 -143.907713 321
109.346643 -143.4594024 320
111.0147389 -143.4594024 320
112.6828348 -143.4594024 320
30.83343635 -149.3239697 337
32.59014983 -149.3239697 337
34.34686331 -149.3239697 337
35.99644452 -148.8808718 336
37.7479452 -148.8808718 336
39.49944588 -148.8808718 336
41.12817588 -148.437774 335
42.87446376 -148.437774 335
44.48755537 -147.9946762 334
46.22863045 -147.9946762 334
47.82608366 -147.5515783 333
51.14376075 -147.1084805 332
55.65696571 -145.3360892 328
57.19186532 -144.8929913 327
58.89645081 -144.8929913 327
60.60103629 -144.8929913 327
62.11508471 -144.4498935 326
63.81445739 -144.4498935 326
65.51383007 -144.4498935 326
67.00702729 -144.0067957 325
68.70118717 -144.0067957 325
70.17874599 -143.5636978 324
71.86769307 -143.5636978 324
73.55664016 -143.5636978 324
75.24558724 -143.5636978 324
76.69708206 -143.1206 323
78.38081635 -143.1206 323
80.06455063 -143.1206 323
81.74828492 -143.1206 323
83.4320192 -143.1206 323
85.11575349 -143.1206 323
86.79948777 -143.1206 323
88.20928019 -142.6775022 322
90.16695634 -143.1206 323
91.56632316 -142.6775022 322
93.53442491 -143.1206 323
30.83343635 -147.5672562 337
32.59014983 -147.5672562 337
34.34686331 -147.5672562 337
35.99644452 -147.1293711 336
37.7479452 -147.1293711 336
39.49944588 -147.1293711 336
41.25094656 -147.1293711 336
42.87446376 -146.6914861 335
44.62075165 -146.6914861 335
46.36703953 -146.6914861 335
47.96970553 -146.2536011 334
49.71078061 -146.2536011 334
51.29780822 -145.815716 333
55.82665158 -144.0641759 329
57.366764 -143.6262909 328
59.07656228 -143.6262909 328
60.78636056 -143.6262909 328
62.30562178 -143.1884058 327
64.01020726 -143.1884058 327
65.71479274 -143.1884058 327
67.21320276 -142.7505208 326
68.70118717 -142.3126358 325
70.39534706 -142.3126358 325
72.08950694 -142.3126358 325
73.55664016 -141.8747507 324
75.24558724 -141.8747507 324
76.93453433 -141.8747507 324
78.62348141 -141.8747507 324
80.3124285 -141.8747507 324
83.4320192 -141.4368657 323
85.37926975 -141.8747507 324
87.06821684 -141.8747507 324
88.75716392 -141.8747507 324
90.44611101 -141.8747507 324
92.13505809 -141.8747507 324
93.82400517 -141.8747507 324
32.59014983 -145.8105427 337
34.34686331 -145.8105427 337
36.10357679 -145.8105427 337
37.86029027 -145.8105427 337
39.49944588 -145.3778705 336
41.25094656 -145.3778705 336
43.00244724 -145.3778705 336
44.62075165 -144.9451982 335
46.36703953 -144.9451982 335
48.11332741 -144.9451982 335
49.85961529 -144.9451982 335
51.4518557 -144.512526 334
55.99633745 -142.7818371 330
57.71656134 -142.7818371 330
59.25667375 -142.3491648 329
60.78636056 -141.9164926 328
62.49615885 -141.9164926 328
64.20595713 -141.9164926 328
65.71479274 -141.4838204 327
67.41937823 -141.4838204 327
68.91257544 -141.0511481 326
70.61194813 -141.0511481 326
72.08950694 -140.6184759 325
73.78366683 -140.6184759 325
75.47782671 -140.6184759 325
77.17198659 -140.6184759 325
78.86614648 -140.6184759 325
80.56030636 -140.6184759 325
82.25446625 -140.6184759 325
83.94862613 -140.6184759 325
85.64278602 -140.6184759 325
87.3369459 -140.6184759 325
89.03110578 -140.6184759 325
90.72526567 -140.6184759 325
92.41942555 -140.6184759 325
94.11358544 -140.6184759 325
32.59014983 -144.0538292 337
34.34686331 -144.0538292 337
36.10357679 -144.0538292 337
37.86029027 -144.0538292 337
39.61700375 -144.0538292 337
41.37371723 -144.0538292 337
43.00244724 -143.6263698 336
44.75394792 -143.6263698 336
46.36703953 -143.1989104 335
48.11332741 -143.1989104 335
49.85961529 -143.1989104 335
51.4518557 -142.7714509 334
53.03367051 -142.3439915 333
54.60505972 -141.9165321 332
56.16602333 -141.4890726 331
57.71656134 -141.0616132 330
59.43678522 -141.0616132 330
60.97168483 -140.6341537 329
62.68669591 -140.6341537 329
64.401707 -140.6341537 329
65.91575541 -140.2066943 328
67.62555369 -140.2066943 328
69.33535198 -140.2066943 328
70.82854919 -139.7792349 327
72.53313468 -139.7792349 327
74.23772016 -139.7792349 327
75.71006618 -139.3517754 326
77.40943886 -139.3517754 326
79.10881155 -139.3517754 326
80.80818423 -139.3517754 326
82.50755691 -139.3517754 326
84.2069296 -139.3517754 326
85.90630228 -139.3517754 326
87.60567496 -139.3517754 326
89.57898951 -139.7792349 327
91.00442033 -139.3517754 326
92.98816048 -139.7792349 327
34.44878279 -142.7193624 338
36.21070907 -142.7193624 338
37.97263535 -142.7193624 338
39.73456163 -142.7193624 338
41.49648791 -142.7193624 338
43.25841419 -142.7193624 338
44.88714419 -142.2971157 337
46.64385767 -142.2971157 337
48.40057115 -142.2971157 337
50.00844996 -141.8748691 336
51.4518557 -141.0303758 334
53.19293078 -141.0303758 334
54.76953279 -140.6081292 333
56.3357092 -140.1858826 332
57.89146001 -139.7636359 331
59.61689669 -139.7636359 331
61.34233337 -139.7636359 331
62.87723298 -139.3413893 330
64.59745687 -139.3413893 330
66.11671808 -138.9191427 329
67.83172916 -138.9191427 329
69.33535198 -138.496896 328
71.04515026 -138.496896 328
72.75494854 -138.496896 328
74.23772016 -138.0746494 327
75.94230564 -138.0746494 327
77.64689113 -138.0746494 327
79.35147661 -138.0746494 327
81.05606209 -138.0746494 327
82.76064758 -138.0746494 327
84.46523306 -138.0746494 327
86.16981855 -138.0746494 327
87.87440403 -138.0746494 327
89.57898951 -138.0746494 327
91.283575 -138.0746494 327
38.08498042 -141.3744699 339
39.8521195 -141.3744699 339
41.61925858 -141.3744699 339
43.25841419 -140.9574361 338
45.02034047 -140.9574361 338
46.78226675 -140.9574361 338
48.40057115 -140.5404023 337
50.15728463 -140.5404023 337
51.60590317 -139.7063346 335
53.19293078 -139.2893008 334
54.76953279 -138.8722669 333
56.50539507 -138.8722669 333
58.06635868 -138.4552331 332
59.61689669 -138.0381993 331
61.34233337 -138.0381993 331
63.06777005 -138.0381993 331
64.79320674 -138.0381993 331
66.31768075 -137.6211654 330
67.83172916 -137.2041316 329
69.54674025 -137.2041316 329
71.04515026 -136.7870977 328
72.75494854 -136.7870977 328
74.46474683 -136.7870977 328
76.17454511 -136.7870977 328
77.88434339 -136.7870977 328
79.59414168 -136.7870977 328
81.30393996 -136.7870977 328
83.01373824 -136.7870977 328
84.72353653 -136.7870977 328
86.16981855 -136.3700639 327
87.87440403 -136.3700639 327
38.1973255 -140.0191519 340
39.96967738 -140.0191519 340
41.74202926 -140.0191519 340
43.38639766 -139.6073308 339
45.15353674 -139.6073308 339
46.78226675 -139.1955098 338
48.54419303 -139.1955098 338
50.15728463 -138.7836888 337
51.60590317 -137.9600467 335
53.35219105 -137.9600467 335
54.93400586 -137.5482257 334
56.50539507 -137.1364046 333
58.06635868 -136.7245836 332
59.79700816 -136.7245836 332
61.52765764 -136.7245836 332
63.06777005 -136.3127626 331
64.79320674 -136.3127626 331
66.31768075 -135.9009415 330
68.03790463 -135.9009415 330
69.75812851 -135.9009415 330
71.26175133 -135.4891205 329
72.97676241 -135.4891205 329
74.69177349 -135.4891205 329
76.17454511 -135.0772995 328
77.88434339 -135.0772995 328
79.59414168 -135.0772995 328
81.30393996 -135.0772995 328
83.01373824 -135.0772995 328
84.72353653 -135.0772995 328
86.43333481 -135.0772995 328
88.14313309 -135.0772995 328
36.53210589 -138.6534082 341
38.30967057 -138.6534082 341
40.08723525 -138.6534082 341
41.86479993 -138.6534082 341
43.51438113 -138.2468 340
45.15353674 -137.8401918 339
46.92067582 -137.8401918 339
48.54419303 -137.4335835 338
50.15728463 -137.0269753 337
51.75995064 -136.6203671 336
53.35219105 -136.2137588 335
54.93400586 -135.8071506 334
56.67508094 -135.8071506 334
58.24125735 -135.4005424 333
59.79700816 -134.9939341 332
61.52765764 -134.9939341 332
63.25830712 -134.9939341 332
64.98895661 -134.9939341 332
66.51864342 -134.5873259 331
68.2440801 -134.5873259 331
69.96951678 -134.5873259 331
71.4783524 -134.1807177 330
73.19857628 -134.1807177 330
74.69177349 -133.7741094 329
76.40678458 -133.7741094 329
78.12179566 -133.7741094 329
79.83680674 -133.7741094 329
81.30393996 -133.3675012 328
83.01373824 -133.3675012 328
84.72353653 -133.3675012 328
86.43333481 -133.3675012 328
36.63923817 -137.277239 342
38.42201565 -137.277239 342
40.20479313 -137.277239 342
41.86479993 -136.8758436 341
43.64236461 -136.8758436 341
45.41992929 -136.8758436 341
47.05908489 -136.4744481 340
48.6878149 -136.0730527 339
50.3061193 -135.6716573 338
51.75995064 -134.8688664 336
53.35219105 -134.4674709 335
55.09847893 -134.4674709 335
56.67508094 -134.0660755 334
58.41615602 -134.0660755 334
59.97711963 -133.6646801 333
61.71298191 -133.6646801 333
63.44884419 -133.6646801 333
64.98895661 -133.2632846 332
66.71960609 -133.2632846 332
68.2440801 -132.8618892 331
69.96951678 -132.8618892 331
71.69495346 -132.8618892 331
73.19857628 -132.4604938 330
74.91880016 -132.4604938 330
76.63902404 -132.4604938 330
78.12179566 -132.0590983 329
79.83680674 -132.0590983 329
81.55181783 -132.0590983 329
83.26682891 -132.0590983 329
84.98183999 -132.0590983 329
38.42201565 -135.4944615 342
40.20479313 -135.4944615 342
41.9875706 -135.4944615 342
43.64236461 -135.0982789 341
45.41992929 -135.0982789 341
47.19749397 -135.0982789 341
48.83143677 -134.7020962 340
51.91399811 -133.5135483 337
53.51145132 -133.1173657 336
55.09847893 -132.7211831 335
56.84476681 -132.7211831 335
58.41615602 -132.3250004 334
60.1572311 -132.3250004 334
61.71298191 -131.9288178 333
63.44884419 -131.9288178 333
65.18470647 -131.9288178 333
66.71960609 -131.5326352 332
68.45025557 -131.5326352 332
69.96951678 -131.1364525 331
71.69495346 -131.1364525 331
73.19857628 -130.7402699 330
74.91880016 -130.7402699 330
76.63902404 -130.7402699 330
78.35924793 -130.7402699 330
80.07947181 -130.7402699 330
41.9875706 -133.711684 342
43.77034808 -133.711684 342
45.55312556 -133.711684 342
47.19749397 -133.3207142 341
55.09847893 -130.9748952 335
56.84476681 -130.9748952 335
58.41615602 -130.5839254 334
60.1572311 -130.5839254 334
61.89830618 -130.5839254 334
63.44884419 -130.1929555 333
65.18470647 -130.1929555 333
66.92056876 -130.1929555 333
68.45025557 -129.8019857 332
70.18090505 -129.8019857 332
71.69495346 -129.4110158 331
73.42039015 -129.4110158 331
43.77034808 -131.9289066 342
45.55312556 -131.9289066 342
56.84476681 -129.2286073 335
58.41615602 -128.8428503 334
65.54475196 -127.3208114 344
67.14220517 -126.9506928 343
68.93019545 -126.9506928 343
70.51201026 -126.5805741 342
72.08339947 -126.2104555 341
73.64436308 -125.8403369 340
75.63852882 -126.2104555 341
77.18906683 -125.8403369 340
78.49693978 -125.1000996 338
63.93687315 -125.8925142 345
65.54475196 -125.5276083 344
67.33795504 -125.5276083 344
69.13115811 -125.5276083 344
70.71818572 -125.1627025 343
72.29478773 -124.7977967 342
73.86096414 -124.4328908 341
75.63852882 -124.4328908 341
77.18906683 -124.067985 340
78.72917925 -123.7030791 339
80.25886606 -123.3381733 338
82.02079234 -123.3381733 338
62.13845728 -124.0940983 345
63.93687315 -124.0940983 345
65.73528903 -124.0940983 345
67.33795504 -123.7344052 344
69.13115811 -123.7344052 344
70.92436119 -123.7344052 344
78.96141871 -122.2956331 340
80.49631833 -121.9359401 339
82.2634574 -121.9359401 339
83.78271862 -121.576247 338
89.06849746 -121.576247 338
90.83042374 -121.576247 338
32.01027948 -131.5121686 371
33.66974652 -130.4487279 368
35.58805679 -130.4487279 368
60.51494007 -122.6501626 346
62.13845728 -122.2956824 345
63.93687315 -122.2956824 345
65.73528903 -122.2956824 345
67.53370491 -122.2956824 345
69.13115811 -121.9412022 344
70.92436119 -121.9412022 344
72.506176 -121.5867219 343
74.07756521 -121.2322417 342
78.96141871 -120.5232812 340
80.73377059 -120.5232812 340
82.2634574 -120.168801 339
84.03059648 -120.168801 339
85.5446449 -119.8143207 338
103.8020283 -122.6501626 346
105.605657 -122.6501626 346
107.4092857 -122.6501626 346
31.83771733 -128.8796851 369
33.66974652 -128.5304176 368
35.49135011 -128.1811502 367
37.40444758 -128.1811502 367
60.51494007 -120.846534 346
62.31856875 -120.846534 346
64.12219742 -120.846534 346
65.9258261 -120.846534 346
67.53370491 -120.4972665 345
69.33212078 -120.4972665 345
71.13053666 -120.4972665 345
72.92895254 -120.4972665 345
74.51076735 -120.1479991 344
76.30397042 -120.1479991 344
77.87014684 -119.7987317 343
79.19365818 -119.1001968 341
80.97122286 -119.1001968 341
82.50612247 -118.7509293 340
84.27847435 -118.7509293 340
86.05082623 -118.7509293 340
87.56487464 -118.4016619 339
89.59552999 -118.7509293 340
91.36788187 -118.7509293 340
93.41417561 -119.1001968 341
97.53803989 -119.7987317 343
99.61561043 -120.1479991 344
101.7036066 -120.4972665 345
103.5020224 -120.4972665 345
105.605657 -120.846534 346
107.4092857 -120.846534 346
109.2129143 -120.846534 346
111.016543 -120.846534 346
29.91419426 -126.956162 369
31.75143625 -126.6121074 368
33.57825264 -126.2680527 367
35.49135011 -126.2680527 367
37.40444758 -126.2680527 367
39.31754505 -126.2680527 367
41.23064252 -126.2680527 367
43.14373999 -126.2680527 367
58.88099726 -119.3869599 347
60.68983874 -119.3869599 347
62.49868022 -119.3869599 347
64.30752169 -119.3869599 347
66.11636317 -119.3869599 347
67.92520465 -119.3869599 347
69.73404612 -119.3869599 347
71.5428876 -119.3869599 347
73.14034081 -119.0429053 346
74.94396948 -119.0429053 346
76.52578429 -118.6988507 345
78.0971735 -118.354796 344
81.20867512 -117.6666867 342
82.9914526 -117.6666867 342
84.77423008 -117.6666867 342
86.30391689 -117.3226321 341
88.08148157 -117.3226321 341
89.85904625 -117.3226321 341
91.63661093 -117.3226321 341
95.47089495 -117.6666867 342
111.3374001 -119.3869599 347
113.1462416 -119.3869599 347
29.83312598 -124.6937971 368
31.66515518 -124.3549553 367
33.57825264 -124.3549553 367
35.49135011 -124.3549553 367
37.30252811 -124.0161134 366
39.21041278 -124.0161134 366
41.11829745 -124.0161134 366
43.02618212 -124.0161134 366
62.67879169 -117.9169603 348
64.49284596 -117.9169603 348
66.30690024 -117.9169603 348
68.12095451 -117.9169603 348
69.73404612 -117.5781185 347
71.5428876 -117.5781185 347
73.35172907 -117.5781185 347
74.94396948 -117.2392766 346
76.74759816 -117.2392766 346
78.0971735 -116.5615929 344
79.89037658 -116.5615929 344
81.44612739 -116.2227511 343
83.23411767 -116.2227511 343
84.77423008 -115.8839093 342
86.30391689 -115.5450674 341
88.08148157 -115.5450674 341
89.85904625 -115.5450674 341
91.63661093 -115.5450674 341
93.41417561 -115.5450674 341
95.19174029 -115.5450674 341
97.25367243 -115.8839093 342
99.32603017 -116.2227511 343
101.4088135 -116.5615929 344
111.6582571 -117.9169603 348
113.4723114 -117.9169603 348
29.83312598 -122.7754868 368
31.66515518 -122.4418578 367
33.57825264 -122.4418578 367
35.39464344 -122.1082287 366
37.30252811 -122.1082287 366
39.21041278 -122.1082287 366
41.11829745 -122.1082287 366
43.02618212 -122.1082287 366
61.03963608 -116.4365351 349
62.85890316 -116.4365351 349
64.49284596 -116.102906 348
66.30690024 -116.102906 348
68.12095451 -116.102906 348
69.93500879 -116.102906 348
71.5428876 -115.769277 347
73.35172907 -115.769277 347
74.94396948 -115.4356479 346
76.74759816 -115.4356479 346
78.32420017 -115.1020189 345
79.89037658 -114.7683899 344
81.68357966 -114.7683899 344
83.23411767 -114.4347608 343
85.02210795 -114.4347608 343
86.55700756 -114.1011318 342
88.08148157 -113.7675027 341
89.85904625 -113.7675027 341
93.14023374 -113.4338737 340
95.19174029 -113.7675027 341
96.96930497 -113.7675027 341
99.03644991 -114.1011318 342
111.9791142 -116.4365351 349
113.7983813 -116.4365351 349
33.57825264 -120.5287603 367
35.39464344 -120.2003441 366
37.30252811 -120.2003441 366
39.21041278 -120.2003441 366
41.11829745 -120.2003441 366
42.90862424 -119.8719278 365
63.03901463 -114.9456842 350
64.67817023 -114.617268 349
66.30690024 -114.2888517 348
68.12095451 -114.2888517 348
69.93500879 -114.2888517 348
71.5428876 -113.9604355 347
73.35172907 -113.9604355 347
75.16057055 -113.9604355 347
76.74759816 -113.6320193 346
78.32420017 -113.303603 345
80.12261605 -113.303603 345
81.92103192 -113.303603 345
83.47678273 -112.9751868 344
85.02210795 -112.6467705 343
86.55700756 -112.3183543 342
88.33978504 -112.3183543 342
89.85904625 -111.9899381 341
91.63661093 -111.9899381 341
93.41417561 -111.9899381 341
95.19174029 -111.9899381 341
96.96930497 -111.9899381 341
99.32603017 -112.6467705 343
101.4088135 -112.9751868 344
104.40204 -114.2888517 348
106.8265316 -114.9456842 350
110.4754914 -114.9456842 350
112.2999713 -114.9456842 350
114.450521 -115.2741005 351
33.48675877 -118.2924594 366
35.39464344 -118.2924594 366
37.20060863 -117.969256 365
39.1032805 -117.969256 365
40.8936073 -117.6460525 364
42.79106637 -117.6460525 364
44.56575476 -117.3228491 363
46.45800103 -117.3228491 363
48.08385476 -116.6764422 361
49.68885728 -116.0300353 359
53.28281275 -115.7068319 358
54.84090008 -115.060425 356
59.89911249 -114.0908147 353
61.38943342 -113.4444078 351
63.03901463 -113.1212044 350
64.8634945 -113.1212044 350
66.68797438 -113.1212044 350
68.31670438 -112.7980009 349
70.13597146 -112.7980009 349
71.74906307 -112.4747975 348
73.56311734 -112.4747975 348
75.37717162 -112.4747975 348
76.96941203 -112.151594 347
78.7782535 -112.151594 347
80.35485551 -111.8283906 346
82.15848419 -111.8283906 346
83.7194478 -111.5051871 345
85.51786368 -111.5051871 345
87.06318889 -111.1819837 344
88.5980885 -110.8587803 343
90.12256252 -110.5355768 342
93.68811747 -110.5355768 342
95.47089495 -110.5355768 342
97.53803989 -110.8587803 343
99.61561043 -111.1819837 344
102.2931927 -112.151594 347
104.7020459 -112.7980009 349
106.8265316 -113.1212044 350
109.2718744 -113.7676112 352
111.1067799 -113.7676112 352
112.9416854 -113.7676112 352
114.7765909 -113.7676112 352
116.6114963 -113.7676112 352
29.91419426 -117.3385467 369
31.66515518 -116.7025654 367
33.48675877 -116.3845747 366
35.29793676 -116.0665841 365
37.20060863 -116.0665841 365
38.99614823 -115.7485935 364
40.8936073 -115.7485935 364
42.79106637 -115.7485935 364
44.56575476 -115.4306028 363
46.20203409 -114.7946215 361
48.08385476 -114.7946215 361
49.68885728 -114.1586402 359
51.56025235 -114.1586402 359
53.28281275 -113.8406496 358
54.99494756 -113.522659 357
56.69665676 -113.2046683 356
58.38794036 -112.8866777 355
60.06879836 -112.568687 354
61.73923076 -112.2506964 353
63.2191261 -111.6147151 351
65.04881877 -111.6147151 351
66.68797438 -111.2967245 350
68.51245425 -111.2967245 350
70.33693413 -111.2967245 350
71.95523854 -110.9787338 349
73.77450561 -110.9787338 349
75.37717162 -110.6607432 348
77.19122589 -110.6607432 348
79.00528017 -110.6607432 348
80.81933445 -110.6607432 348
82.39593646 -110.3427526 347
84.20477793 -110.3427526 347
85.76574154 -110.0247619 346
87.31627956 -109.7067713 345
88.85639197 -109.3887806 344
90.38607878 -109.07079 343
93.96205934 -109.07079 343
96.02920428 -109.3887806 344
98.10677482 -109.7067713 345
99.9051907 -109.7067713 345
102.8827788 -110.9787338 349
105.3020576 -111.6147151 351
107.436969 -111.9327058 352
109.5823059 -112.2506964 353
111.4224242 -112.2506964 353
113.2625424 -112.2506964 353
115.1026607 -112.2506964 353
116.942779 -112.2506964 353
31.66515518 -114.7894679 367
33.48675877 -114.4766901 366
35.29793676 -114.1639122 365
37.20060863 -114.1639122 365
38.99614823 -113.8511344 364
40.8936073 -113.8511344 364
42.67350849 -113.5383565 363
44.44298409 -113.2255787 362
48.08385476 -112.9128009 361
49.68885728 -112.2872452 359
51.56025235 -112.2872452 359
53.28281275 -111.9744673 358
54.99494756 -111.6616895 357
56.69665676 -111.3489117 356
58.55241343 -111.3489117 356
60.23848423 -111.0361338 355
61.73923076 -110.4105781 353
63.39923757 -110.0978003 352
65.04881877 -109.7850224 351
66.87851145 -109.7850224 351
68.51245425 -109.4722446 350
70.33693413 -109.4722446 350
71.95523854 -109.1594668 349
73.77450561 -109.1594668 349
75.59377269 -109.1594668 349
77.41303976 -109.1594668 349
79.23230684 -109.1594668 349
81.05157391 -109.1594668 349
82.63338872 -108.8466889 348
84.447443 -108.8466889 348
86.26149728 -108.8466889 348
87.82246089 -108.5339111 347
89.3729989 -108.2211332 346
90.91311131 -107.9083554 345
92.71152719 -107.9083554 345
94.50994306 -107.9083554 345
96.30835894 -107.9083554 345
98.39114228 -108.2211332 346
100.4843512 -108.5339111 347
103.1775719 -109.4722446 350
105.6020635 -110.0978003 352
107.7421876 -110.4105781 353
109.8927374 -110.723356 354
111.7380684 -110.723356 354
113.5833995 -110.723356 354
115.7548004 -111.0361338 355
117.2740617 -110.723356 354
31.75143625 -113.1839355 368
33.48675877 -112.5688054 366
35.29793676 -112.2612404 365
37.20060863 -112.2612404 365
38.99614823 -111.9536753 364
40.8936073 -111.9536753 364
42.67350849 -111.6461103 363
44.44298409 -111.3385452 362
46.33001756 -111.3385452 362
48.08385476 -111.0309802 361
49.82726636 -110.7234151 360
51.56025235 -110.4158501 359
53.43164743 -110.4158501 359
54.99494756 -109.80072 357
56.85591703 -109.80072 357
58.55241343 -109.493155 356
60.23848423 -109.1855899 355
61.91412943 -108.8780249 354
63.57934904 -108.5704599 353
65.23414304 -108.2628948 352
67.06904852 -108.2628948 352
68.70820412 -107.9553298 351
70.5378968 -107.9553298 351
72.161414 -107.6477647 350
73.98589388 -107.6477647 350
75.81037375 -107.6477647 350
77.63485363 -107.6477647 350
79.45933351 -107.6477647 350
81.28381338 -107.6477647 350
83.10829326 -107.6477647 350
84.93277313 -107.6477647 350
86.50937514 -107.3401997 349
88.32864222 -107.3401997 349
89.88960583 -107.0326346 348
91.17662757 -106.4175046 346
93.51771438 -107.0326346 348
94.78388493 -106.4175046 346
96.86666827 -106.7250696 347
99.24424467 -107.3401997 349
100.7739315 -107.0326346 348
103.4723649 -107.9553298 351
105.9020693 -108.5704599 353
108.0474063 -108.8780249 354
110.2031688 -109.1855899 355
112.0537127 -109.1855899 355
113.9042566 -109.1855899 355
116.4069402 -109.80072 357
117.936627 -109.493155 356
33.48675877 -110.6609207 366
35.29793676 -110.3585685 365
37.20060863 -110.3585685 365
38.99614823 -110.0562162 364
40.8936073 -110.0562162 364
42.67350849 -109.753864 363
44.44298409 -109.4515118 362
46.33001756 -109.4515118 362
48.08385476 -109.1491595 361
49.82726636 -108.8468073 360
51.56025235 -108.544455 359
53.43164743 -108.544455 359
55.14899503 -108.2421028 358
56.85591703 -107.9397505 357
58.55241343 -107.6373983 356
60.4081701 -107.6373983 356
62.08902811 -107.3350461 355
63.75946051 -107.0326938 354
65.41946731 -106.7303416 353
67.25958559 -106.7303416 353
69.09970386 -106.7303416 353
70.73885947 -106.4279893 352
72.57376494 -106.4279893 352
74.40867042 -106.4279893 352
76.24357589 -106.4279893 352
78.07848136 -106.4279893 352
79.91338684 -106.4279893 352
81.74829231 -106.4279893 352
83.58319779 -106.4279893 352
85.41810326 -106.4279893 352
87.25300874 -106.4279893 352
89.08791421 -106.4279893 352
90.66451622 -106.1256371 351
94.05517251 -105.8232849 350
95.87965238 -105.8232849 350
97.70413226 -105.8232849 350
99.8129796 -106.1256371 351
101.9322525 -106.4279893 352
104.6515372 -107.3350461 355
106.8020869 -107.6373983 356
108.6578436 -107.6373983 356
110.8240317 -107.9397505 357
112.6850012 -107.9397505 357
114.5459707 -107.9397505 357
116.73301 -108.2421028 358
142.3278637 -117.0103178 387
143.9722321 -116.7079656 386
37.40444758 -109.0501755 367
39.1032805 -108.4558966 365
40.8936073 -108.1587572 364
42.67350849 -107.8616177 363
44.56575476 -107.8616177 363
46.33001756 -107.5644783 362
48.08385476 -107.2673388 361
49.96567543 -107.2673388 361
51.70387423 -106.9701994 360
53.5804821 -106.9701994 360
55.3030425 -106.67306 359
57.0151773 -106.3759205 358
