# .PCD v0.7 - Point Cloud Data file format
VERSION 0.7
FIELDS x y z rgb
SIZE 4 4 4 4
TYPE F F F F
COUNT 1 1 1 1
WIDTH 1083
HEIGHT 1
VIEWPOINT 0 0 0 1 0 0 0
POINTS 1083
DATA ascii
-114.396049 15.92654801 382 2.115893419e-38
-112.4047595 15.92654801 382 2.115893419e-38
-110.7025106 15.96824055 383 2.115893419e-38
-108.7060083 15.96824055 383 2.115893419e-38
-106.709506 15.96824055 383 2.115893419e-38
-104.7130038 15.96824055 383 2.115893419e-38
-102.7165015 15.96824055 383 2.115893419e-38
-101.2459523 16.05162562 385 2.115893419e-38
-99.49678809 16.09331815 386 2.115893419e-38
-97.73719833 16.13501068 387 2.115893419e-38
-96.21452107 16.21839575 389 2.115893419e-38
-94.67099261 16.30178082 391 2.115893419e-38
-93.10661295 16.38516589 393 2.115893419e-38
-91.7530818 16.51024349 396 2.115893419e-38
-90.14178694 16.59362856 398 2.115893419e-38
-88.06709268 16.59362856 398 2.115893419e-38
-86.20845973 16.63532109 399 2.115893419e-38
-84.12855267 16.63532109 399 2.115893419e-38
-82.25428131 16.67701363 400 2.115893419e-38
-80.16916146 16.67701363 400 2.115893419e-38
-78.0840416 16.67701363 400 2.115893419e-38
-76.18891905 16.71870616 401 2.115893419e-38
-62.63114439 17.0105539 408 2.115893419e-38
-60.35602723 16.96886136 407 2.115893419e-38
-58.09133567 16.92716883 406 2.115893419e-38
-55.97493901 16.92716883 406 2.115893419e-38
-53.72588585 16.8854763 405 2.115893419e-38
-51.48725829 16.84378376 404 2.115893419e-38
-49.25905632 16.80209123 403 2.115893419e-38
-46.92426185 16.71870616 401 2.115893419e-38
-44.72212388 16.67701363 400 2.115893419e-38
-42.63700402 16.67701363 400 2.115893419e-38
-40.45050445 16.63532109 399 2.115893419e-38
-38.27443048 16.59362856 398 2.115893419e-38
-36.10878211 16.55193602 397 2.115893419e-38
-34.03930066 16.55193602 397 2.115893419e-38
-31.9698192 16.55193602 397 2.115893419e-38
-29.82502203 16.51024349 396 2.115893419e-38
-27.62054754 16.42685842 394 2.115893419e-38
-25.50181437 16.38516589 393 2.115893419e-38
-23.3935068 16.34347335 392 2.115893419e-38
-21.24116031 16.26008829 390 2.115893419e-38
-19.15891673 16.21839575 389 2.115893419e-38
-17.08709876 16.17670322 388 2.115893419e-38
-15.10335861 16.21839575 389 2.115893419e-38
-13.10919286 16.26008829 390 2.115893419e-38
-11.10460152 16.30178082 391 2.115893419e-38
-9.135960006 16.42685842 394 2.115893419e-38
-7.100091862 16.46855096 395 2.115893419e-38
-5.066560235 16.55193602 397 2.115893419e-38
-3.019726727 16.67701363 400 2.115893419e-38
-0.9369433869 16.71870616 401 2.115893419e-38
1.15338927 16.71870616 401 2.115893419e-38
3.25181101 16.76039869 402 2.115893419e-38
5.360658348 16.80209123 403 2.115893419e-38
7.461416605 16.80209123 403 2.115893419e-38
9.562174861 16.80209123 403 2.115893419e-38
11.63399284 16.76039869 402 2.115893419e-38
13.72953829 16.76039869 402 2.115893419e-38
15.82508375 16.76039869 402 2.115893419e-38
17.87605053 16.71870616 401 2.115893419e-38
19.96638319 16.71870616 401 2.115893419e-38
22.00171156 16.67701363 400 2.115893419e-38
24.08683142 16.67701363 400 2.115893419e-38
26.17195128 16.67701363 400 2.115893419e-38
28.25707114 16.67701363 400 2.115893419e-38
30.34219099 16.67701363 400 2.115893419e-38
32.42731085 16.67701363 400 2.115893419e-38
34.51243071 16.67701363 400 2.115893419e-38
36.59755057 16.67701363 400 2.115893419e-38
38.7793771 16.71870616 401 2.115893419e-38
40.86970976 16.71870616 401 2.115893419e-38
42.96004241 16.71870616 401 2.115893419e-38
45.16272015 16.76039869 402 2.115893419e-38
47.2582656 16.76039869 402 2.115893419e-38
49.35381106 16.76039869 402 2.115893419e-38
51.44935652 16.76039869 402 2.115893419e-38
53.54490197 16.76039869 402 2.115893419e-38
55.64044743 16.76039869 402 2.115893419e-38
57.59237101 16.71870616 401 2.115893419e-38
59.68270367 16.71870616 401 2.115893419e-38
61.61898886 16.67701363 400 2.115893419e-38
63.54484844 16.63532109 399 2.115893419e-38
65.46028243 16.59362856 398 2.115893419e-38
67.36529082 16.55193602 397 2.115893419e-38
69.2598736 16.51024349 396 2.115893419e-38
71.32414226 16.51024349 396 2.115893419e-38
73.38841092 16.51024349 396 2.115893419e-38
75.45267958 16.51024349 396 2.115893419e-38
77.51694824 16.51024349 396 2.115893419e-38
79.78217957 16.55193602 397 2.115893419e-38
82.0578365 16.59362856 398 2.115893419e-38
84.34391902 16.63532109 399 2.115893419e-38
86.64042715 16.67701363 400 2.115893419e-38
88.94736087 16.71870616 401 2.115893419e-38
91.2647202 16.76039869 402 2.115893419e-38
93.59250512 16.80209123 403 2.115893419e-38
95.69326338 16.80209123 403 2.115893419e-38
97.55135657 16.76039869 402 2.115893419e-38
99.64690202 16.76039869 402 2.115893419e-38
101.4893568 16.71870616 401 2.115893419e-38
103.0630825 16.63532109 399 2.115893419e-38
104.8794733 16.59362856 398 2.115893419e-38
106.9541676 16.59362856 398 2.115893419e-38
109.0288619 16.59362856 398 2.115893419e-38
110.8244014 16.55193602 397 2.115893419e-38
112.8938829 16.55193602 397 2.115893419e-38
115.2529446 16.59362856 398 2.115893419e-38
117.3276389 16.59362856 398 2.115893419e-38
119.702339 16.63532109 399 2.115893419e-38
121.7822461 16.63532109 399 2.115893419e-38
123.8621531 16.63532109 399 2.115893419e-38
125.9420602 16.63532109 399 2.115893419e-38
127.3802531 16.55193602 397 2.115893419e-38
129.4497346 16.55193602 397 2.115893419e-38
131.1879334 16.51024349 396 2.115893419e-38
133.252202 16.51024349 396 2.115893419e-38
134.9747624 16.46855096 395 2.115893419e-38
137.3807394 16.51024349 396 2.115893419e-38
139.7971419 16.55193602 397 2.115893419e-38
141.8666233 16.55193602 397 2.115893419e-38
144.2986642 16.59362856 398 2.115893419e-38
146.7411308 16.63532109 399 2.115893419e-38
149.1940229 16.67701363 400 2.115893419e-38
151.6573406 16.71870616 401 2.115893419e-38
154.8979052 16.84378376 404 2.115893419e-38
157.3924997 16.8854763 405 2.115893419e-38
159.8975198 16.92716883 406 2.115893419e-38
162.0139165 16.92716883 406 2.115893419e-38
164.534575 16.96886136 407 2.115893419e-38
166.6561845 16.96886136 407 2.115893419e-38
168.7777939 16.96886136 407 2.115893419e-38
170.4795031 16.92716883 406 2.115893419e-38
172.1707867 16.8854763 405 2.115893419e-38
174.2819706 16.8854763 405 2.115893419e-38
176.3931544 16.8854763 405 2.115893419e-38
178.0635868 16.84378376 404 2.115893419e-38
180.1695579 16.84378376 404 2.115893419e-38
181.8243519 16.80209123 403 2.115893419e-38
183.9251102 16.80209123 403 2.115893419e-38
186.0258684 16.80209123 403 2.115893419e-38
188.1266267 16.80209123 403 2.115893419e-38
190.2273849 16.80209123 403 2.115893419e-38
192.3281432 16.80209123 403 2.115893419e-38
194.9113553 16.84378376 404 2.115893419e-38
197.0173263 16.84378376 404 2.115893419e-38
199.6161768 16.8854763 405 2.115893419e-38
201.7273607 16.8854763 405 2.115893419e-38
203.8385446 16.8854763 405 2.115893419e-38
206.4582463 16.92716883 406 2.115893419e-38
209.0883736 16.96886136 407 2.115893419e-38
211.209983 16.96886136 407 2.115893419e-38
213.3315925 16.96886136 407 2.115893419e-38
215.4532019 16.96886136 407 2.115893419e-38
217.5748114 16.96886136 407 2.115893419e-38
219.1566262 16.92716883 406 2.115893419e-38
221.2730228 16.92716883 406 2.115893419e-38
223.3894195 16.92716883 406 2.115893419e-38
224.9503831 16.8854763 405 2.115893419e-38
227.061567 16.8854763 405 2.115893419e-38
229.1727508 16.8854763 405 2.115893419e-38
231.2839347 16.8854763 405 2.115893419e-38
233.3951185 16.8854763 405 2.115893419e-38
235.5063024 16.8854763 405 2.115893419e-38
237.0307764 16.84378376 404 2.115893419e-38
238.5448248 16.80209123 403 2.115893419e-38
239.4513122 16.71870616 401 2.115893419e-38
240.9392966 16.67701363 400 2.115893419e-38
242.4168554 16.63532109 399 2.115893419e-38
243.8839886 16.59362856 398 2.115893419e-38
245.9586829 16.59362856 398 2.115893419e-38
-112.6990128 17.96474281 383 2.115893419e-38
-110.7025106 17.96474281 383 2.115893419e-38
-108.7060083 17.96474281 383 2.115893419e-38
-106.709506 17.96474281 383 2.115893419e-38
-104.7130038 17.96474281 383 2.115893419e-38
-102.9846908 18.01164814 384 2.115893419e-38
-101.2459523 18.05855348 385 2.115893419e-38
-99.23902439 18.05855348 385 2.115893419e-38
-97.73719833 18.15236415 387 2.115893419e-38
-96.21452107 18.24617481 389 2.115893419e-38
-94.42886731 18.29308015 390 2.115893419e-38
-92.86970045 18.38689081 392 2.115893419e-38
-91.28968239 18.48070148 394 2.115893419e-38
-89.46232624 18.52760682 395 2.115893419e-38
-87.62454448 18.57451215 396 2.115893419e-38
-85.77633712 18.62141748 397 2.115893419e-38
-83.91770417 18.66832282 398 2.115893419e-38
-81.84300991 18.66832282 398 2.115893419e-38
-79.76831565 18.66832282 398 2.115893419e-38
-77.69362139 18.66832282 398 2.115893419e-38
-75.61892713 18.66832282 398 2.115893419e-38
-73.54423288 18.66832282 398 2.115893419e-38
-63.6469231 18.80903882 401 2.115893419e-38
-61.71009815 18.85594415 402 2.115893419e-38
-59.6145527 18.85594415 402 2.115893419e-38
-57.66208935 18.90284949 403 2.115893419e-38
-55.42346178 18.85594415 402 2.115893419e-38
-53.32791633 18.85594415 402 2.115893419e-38
-51.23237087 18.85594415 402 2.115893419e-38
-49.13682541 18.85594415 402 2.115893419e-38
-46.80724374 18.76213348 400 2.115893419e-38
-44.61031857 18.71522815 399 2.115893419e-38
-42.53041151 18.71522815 399 2.115893419e-38
-40.34912474 18.66832282 398 2.115893419e-38
-38.17826357 18.62141748 397 2.115893419e-38
-36.10878211 18.62141748 397 2.115893419e-38
-33.95355934 18.57451215 396 2.115893419e-38
-31.88929069 18.57451215 396 2.115893419e-38
-29.74970631 18.52760682 395 2.115893419e-38
-27.55044463 18.43379615 393 2.115893419e-38
-25.43692426 18.38689081 392 2.115893419e-38
-23.33382948 18.33998548 391 2.115893419e-38
-21.24116031 18.29308015 390 2.115893419e-38
-19.15891673 18.24617481 389 2.115893419e-38
-17.04305984 18.15236415 387 2.115893419e-38
-15.0645325 18.19926948 388 2.115893419e-38
-13.07557955 18.24617481 389 2.115893419e-38
-11.076201 18.29308015 390 2.115893419e-38
-9.11277229 18.43379615 393 2.115893419e-38
-7.100091862 18.52760682 395 2.115893419e-38
-5.066560235 18.62141748 397 2.115893419e-38
-3.019726727 18.76213348 400 2.115893419e-38
-0.9369433869 18.80903882 401 2.115893419e-38
1.15338927 18.80903882 401 2.115893419e-38
3.25181101 18.85594415 402 2.115893419e-38
5.347356466 18.85594415 402 2.115893419e-38
7.461416605 18.90284949 403 2.115893419e-38
9.562174861 18.90284949 403 2.115893419e-38
11.63399284 18.85594415 402 2.115893419e-38
13.72953829 18.85594415 402 2.115893419e-38
15.82508375 18.85594415 402 2.115893419e-38
17.87605053 18.80903882 401 2.115893419e-38
19.91659171 18.76213348 400 2.115893419e-38
22.00171156 18.76213348 400 2.115893419e-38
24.08683142 18.76213348 400 2.115893419e-38
26.1065214 18.71522815 399 2.115893419e-38
28.18642846 18.71522815 399 2.115893419e-38
30.26633552 18.71522815 399 2.115893419e-38
32.34624257 18.71522815 399 2.115893419e-38
34.51243071 18.76213348 400 2.115893419e-38
36.59755057 18.76213348 400 2.115893419e-38
38.7793771 18.80903882 401 2.115893419e-38
40.86970976 18.80903882 401 2.115893419e-38
42.96004241 18.80903882 401 2.115893419e-38
45.05037507 18.80903882 401 2.115893419e-38
47.14070773 18.80903882 401 2.115893419e-38
49.23104039 18.80903882 401 2.115893419e-38
51.32137304 18.80903882 401 2.115893419e-38
53.4117057 18.80903882 401 2.115893419e-38
55.50203836 18.80903882 401 2.115893419e-38
57.59237101 18.80903882 401 2.115893419e-38
59.533869 18.76213348 400 2.115893419e-38
61.46494139 18.71522815 399 2.115893419e-38
63.38558817 18.66832282 398 2.115893419e-38
65.29580936 18.62141748 397 2.115893419e-38
67.19560495 18.57451215 396 2.115893419e-38
69.08497493 18.52760682 395 2.115893419e-38
70.96391932 18.48070148 394 2.115893419e-38
73.01776238 18.48070148 394 2.115893419e-38
75.07160544 18.48070148 394 2.115893419e-38
77.1254485 18.48070148 394 2.115893419e-38
79.38025423 18.52760682 395 2.115893419e-38
81.43931009 18.52760682 395 2.115893419e-38
83.92114249 18.62141748 397 2.115893419e-38
85.99062394 18.62141748 397 2.115893419e-38
88.50373314 18.71522815 399 2.115893419e-38
90.81066686 18.76213348 400 2.115893419e-38
92.89578672 18.76213348 400 2.115893419e-38
94.98090658 18.76213348 400 2.115893419e-38
97.06602644 18.76213348 400 2.115893419e-38
99.15114629 18.76213348 400 2.115893419e-38
101.2362662 18.76213348 400 2.115893419e-38
102.8047791 18.66832282 398 2.115893419e-38
104.6159571 18.62141748 397 2.115893419e-38
106.6854385 18.62141748 397 2.115893419e-38
108.4809781 18.57451215 396 2.115893419e-38
110.5452468 18.57451215 396 2.115893419e-38
112.6095154 18.57451215 396 2.115893419e-38
114.9633644 18.62141748 397 2.115893419e-38
117.0328458 18.62141748 397 2.115893419e-38
119.1023273 18.62141748 397 2.115893419e-38
121.7822461 18.71522815 399 2.115893419e-38
123.8621531 18.71522815 399 2.115893419e-38
125.6264159 18.66832282 398 2.115893419e-38
127.3802531 18.62141748 397 2.115893419e-38
129.1236647 18.57451215 396 2.115893419e-38
131.1879334 18.57451215 396 2.115893419e-38
132.9157066 18.52760682 395 2.115893419e-38
134.9747624 18.52760682 395 2.115893419e-38
137.3807394 18.57451215 396 2.115893419e-38
139.7971419 18.62141748 397 2.115893419e-38
141.8666233 18.62141748 397 2.115893419e-38
144.2986642 18.66832282 398 2.115893419e-38
146.7411308 18.71522815 399 2.115893419e-38
149.1940229 18.76213348 400 2.115893419e-38
151.6573406 18.80903882 401 2.115893419e-38
153.7476732 18.80903882 401 2.115893419e-38
156.6152528 18.90284949 403 2.115893419e-38
159.1098473 18.94975482 404 2.115893419e-38
161.6148674 18.99666015 405 2.115893419e-38
164.1303132 19.04356549 406 2.115893419e-38
165.8372352 18.99666015 405 2.115893419e-38
168.3631065 19.04356549 406 2.115893419e-38
170.0596029 18.99666015 405 2.115893419e-38
172.1707867 18.99666015 405 2.115893419e-38
173.8516447 18.94975482 404 2.115893419e-38
175.9576158 18.94975482 404 2.115893419e-38
177.6228354 18.90284949 403 2.115893419e-38
179.7235936 18.90284949 403 2.115893419e-38
181.8243519 18.90284949 403 2.115893419e-38
183.9251102 18.90284949 403 2.115893419e-38
186.0258684 18.90284949 403 2.115893419e-38
188.1266267 18.90284949 403 2.115893419e-38
190.2273849 18.90284949 403 2.115893419e-38
192.3281432 18.90284949 403 2.115893419e-38
194.4289014 18.90284949 403 2.115893419e-38
197.0173263 18.94975482 404 2.115893419e-38
199.1232974 18.94975482 404 2.115893419e-38
201.7273607 18.99666015 405 2.115893419e-38
203.8385446 18.99666015 405 2.115893419e-38
206.4582463 19.04356549 406 2.115893419e-38
209.0883736 19.09047082 407 2.115893419e-38
211.209983 19.09047082 407 2.115893419e-38
213.3315925 19.09047082 407 2.115893419e-38
215.4532019 19.09047082 407 2.115893419e-38
217.5748114 19.09047082 407 2.115893419e-38
219.1566262 19.04356549 406 2.115893419e-38
220.7280154 18.99666015 405 2.115893419e-38
222.8391993 18.99666015 405 2.115893419e-38
224.9503831 18.99666015 405 2.115893419e-38
227.061567 18.99666015 405 2.115893419e-38
229.1727508 18.99666015 405 2.115893419e-38
231.2839347 18.99666015 405 2.115893419e-38
233.3951185 18.99666015 405 2.115893419e-38
234.9248053 18.94975482 404 2.115893419e-38
237.0307764 18.94975482 404 2.115893419e-38
237.9529022 18.85594415 402 2.115893419e-38
239.4513122 18.80903882 401 2.115893419e-38
240.9392966 18.76213348 400 2.115893419e-38
242.4168554 18.71522815 399 2.115893419e-38
243.8839886 18.66832282 398 2.115893419e-38
245.3406963 18.62141748 397 2.115893419e-38
247.4101777 18.62141748 397 2.115893419e-38
-110.7025106 19.96124507 383 2.115893419e-38
-108.7060083 19.96124507 383 2.115893419e-38
-106.709506 19.96124507 383 2.115893419e-38
-104.7130038 19.96124507 383 2.115893419e-38
-102.9846908 20.01336321 384 2.115893419e-38
-100.9829758 20.01336321 384 2.115893419e-38
-99.23902439 20.06548134 385 2.115893419e-38
-97.48464743 20.11759947 386 2.115893419e-38
-95.71984487 20.16971761 387 2.115893419e-38
-94.18674201 20.27395387 389 2.115893419e-38
-92.39587545 20.32607201 390 2.115893419e-38
-90.59458329 20.37819014 391 2.115893419e-38
-89.00935243 20.48242641 393 2.115893419e-38
-87.18199627 20.53454454 394 2.115893419e-38
-85.34421452 20.58666267 395 2.115893419e-38
-83.49600716 20.63878081 396 2.115893419e-38
-81.6373742 20.69089894 397 2.115893419e-38
-79.56789275 20.69089894 397 2.115893419e-38
-77.30320118 20.63878081 396 2.115893419e-38
-75.23893252 20.63878081 396 2.115893419e-38
-72.98987936 20.58666267 395 2.115893419e-38
-64.75365592 20.58666267 395 2.115893419e-38
-62.85332057 20.63878081 396 2.115893419e-38
-61.09606733 20.74301707 398 2.115893419e-38
-59.16966797 20.79513521 399 2.115893419e-38
-57.08976092 20.79513521 399 2.115893419e-38
-55.14772317 20.84725334 400 2.115893419e-38
-53.06260331 20.84725334 400 2.115893419e-38
-50.97748345 20.84725334 400 2.115893419e-38
-48.89236359 20.84725334 400 2.115893419e-38
-46.69022563 20.79513521 399 2.115893419e-38
-44.49851326 20.74301707 398 2.115893419e-38
-42.423819 20.74301707 398 2.115893419e-38
-40.24774503 20.69089894 397 2.115893419e-38
-38.08209666 20.63878081 396 2.115893419e-38
-36.017828 20.63878081 396 2.115893419e-38
-33.86781803 20.58666267 395 2.115893419e-38
-31.80876217 20.58666267 395 2.115893419e-38
-29.6743906 20.53454454 394 2.115893419e-38
-27.48034172 20.43030827 392 2.115893419e-38
-25.37203414 20.37819014 391 2.115893419e-38
-23.27415217 20.32607201 390 2.115893419e-38
-21.1866958 20.27395387 389 2.115893419e-38
-19.10966502 20.22183574 388 2.115893419e-38
-17.04305984 20.16971761 387 2.115893419e-38
-15.02570638 20.16971761 387 2.115893419e-38
-13.04196623 20.22183574 388 2.115893419e-38
-11.076201 20.32607201 390 2.115893419e-38
-9.11277229 20.48242641 393 2.115893419e-38
-7.100091862 20.58666267 395 2.115893419e-38
-5.066560235 20.69089894 397 2.115893419e-38
-3.019726727 20.84725334 400 2.115893419e-38
-0.9369433869 20.89937147 401 2.115893419e-38
1.15338927 20.89937147 401 2.115893419e-38
3.243721927 20.89937147 401 2.115893419e-38
5.347356466 20.95148961 402 2.115893419e-38
7.442901923 20.95148961 402 2.115893419e-38
9.53844738 20.95148961 402 2.115893419e-38
11.60505256 20.89937147 401 2.115893419e-38
13.69538521 20.89937147 401 2.115893419e-38
15.78571787 20.89937147 401 2.115893419e-38
17.83147185 20.84725334 400 2.115893419e-38
19.91659171 20.84725334 400 2.115893419e-38
21.94670728 20.79513521 399 2.115893419e-38
24.02661434 20.79513521 399 2.115893419e-38
26.1065214 20.79513521 399 2.115893419e-38
28.18642846 20.79513521 399 2.115893419e-38
30.26633552 20.79513521 399 2.115893419e-38
32.34624257 20.79513521 399 2.115893419e-38
34.42614963 20.79513521 399 2.115893419e-38
36.59755057 20.84725334 400 2.115893419e-38
38.7793771 20.89937147 401 2.115893419e-38
40.86970976 20.89937147 401 2.115893419e-38
42.85291014 20.84725334 400 2.115893419e-38
44.93803 20.84725334 400 2.115893419e-38
47.14070773 20.89937147 401 2.115893419e-38
49.10826971 20.84725334 400 2.115893419e-38
51.19338957 20.84725334 400 2.115893419e-38
53.27850943 20.84725334 400 2.115893419e-38
55.36362928 20.84725334 400 2.115893419e-38
57.30512727 20.79513521 399 2.115893419e-38
59.38503433 20.79513521 399 2.115893419e-38
61.31089391 20.74301707 398 2.115893419e-38
63.2263279 20.69089894 397 2.115893419e-38
65.29580936 20.69089894 397 2.115893419e-38
67.02591907 20.58666267 395 2.115893419e-38
68.91007626 20.53454454 394 2.115893419e-38
70.78380785 20.48242641 393 2.115893419e-38
72.83243811 20.48242641 393 2.115893419e-38
74.6905313 20.43030827 392 2.115893419e-38
76.73394876 20.43030827 392 2.115893419e-38
78.97832889 20.48242641 393 2.115893419e-38
81.23313462 20.53454454 394 2.115893419e-38
83.49836595 20.58666267 395 2.115893419e-38
85.77402288 20.63878081 396 2.115893419e-38
88.28191927 20.74301707 398 2.115893419e-38
90.5836402 20.79513521 399 2.115893419e-38
92.66354725 20.79513521 399 2.115893419e-38
94.74345431 20.79513521 399 2.115893419e-38
96.82336137 20.79513521 399 2.115893419e-38
98.90326843 20.79513521 399 2.115893419e-38
100.9831755 20.79513521 399 2.115893419e-38
102.5464756 20.69089894 397 2.115893419e-38
104.6159571 20.69089894 397 2.115893419e-38
106.4167095 20.63878081 396 2.115893419e-38
108.2070363 20.58666267 395 2.115893419e-38
110.2660921 20.58666267 395 2.115893419e-38
112.325148 20.58666267 395 2.115893419e-38
114.6737841 20.63878081 396 2.115893419e-38
116.7380528 20.63878081 396 2.115893419e-38
119.1023273 20.69089894 397 2.115893419e-38
121.4770274 20.74301707 398 2.115893419e-38
123.5517217 20.74301707 398 2.115893419e-38
125.6264159 20.74301707 398 2.115893419e-38
127.3802531 20.69089894 397 2.115893419e-38
129.1236647 20.63878081 396 2.115893419e-38
130.8566507 20.58666267 395 2.115893419e-38
134.9747624 20.58666267 395 2.115893419e-38
137.3807394 20.63878081 396 2.115893419e-38
139.445008 20.63878081 396 2.115893419e-38
141.8666233 20.69089894 397 2.115893419e-38
144.2986642 20.74301707 398 2.115893419e-38
146.7411308 20.79513521 399 2.115893419e-38
148.8210378 20.79513521 399 2.115893419e-38
151.2791427 20.84725334 400 2.115893419e-38
153.7476732 20.89937147 401 2.115893419e-38
156.6152528 21.00360774 403 2.115893419e-38
159.1098473 21.05572587 404 2.115893419e-38
161.2158184 21.05572587 404 2.115893419e-38
163.7260513 21.10784401 405 2.115893419e-38
165.8372352 21.10784401 405 2.115893419e-38
167.948419 21.10784401 405 2.115893419e-38
169.6397026 21.05572587 404 2.115893419e-38
171.7456737 21.05572587 404 2.115893419e-38
173.8516447 21.05572587 404 2.115893419e-38
175.9576158 21.05572587 404 2.115893419e-38
177.6228354 21.00360774 403 2.115893419e-38
179.2776294 20.95148961 402 2.115893419e-38
181.3731748 20.95148961 402 2.115893419e-38
183.4687203 20.95148961 402 2.115893419e-38
185.5642658 20.95148961 402 2.115893419e-38
187.6598112 20.95148961 402 2.115893419e-38
189.7553567 20.95148961 402 2.115893419e-38
191.8509021 20.95148961 402 2.115893419e-38
194.4289014 21.00360774 403 2.115893419e-38
197.0173263 21.05572587 404 2.115893419e-38
199.1232974 21.05572587 404 2.115893419e-38
201.7273607 21.10784401 405 2.115893419e-38
203.8385446 21.10784401 405 2.115893419e-38
206.4582463 21.15996214 406 2.115893419e-38
209.0883736 21.21208028 407 2.115893419e-38
211.209983 21.21208028 407 2.115893419e-38
213.3315925 21.21208028 407 2.115893419e-38
215.4532019 21.21208028 407 2.115893419e-38
217.0402295 21.15996214 406 2.115893419e-38
219.1566262 21.15996214 406 2.115893419e-38
220.7280154 21.10784401 405 2.115893419e-38
222.8391993 21.10784401 405 2.115893419e-38
224.9503831 21.10784401 405 2.115893419e-38
227.061567 21.10784401 405 2.115893419e-38
229.1727508 21.10784401 405 2.115893419e-38
230.7128632 21.05572587 404 2.115893419e-38
232.8188343 21.05572587 404 2.115893419e-38
234.3433083 21.00360774 403 2.115893419e-38
236.4440666 21.00360774 403 2.115893419e-38
237.3609795 20.89937147 401 2.115893419e-38
238.8541768 20.84725334 400 2.115893419e-38
240.3369484 20.79513521 399 2.115893419e-38
241.8092944 20.74301707 398 2.115893419e-38
243.2712148 20.69089894 397 2.115893419e-38
244.7227096 20.63878081 396 2.115893419e-38
246.7869783 20.63878081 396 2.115893419e-38
-108.7060083 21.95774734 383 2.115893419e-38
-106.709506 21.95774734 383 2.115893419e-38
-104.7130038 21.95774734 383 2.115893419e-38
-102.7165015 21.95774734 383 2.115893419e-38
-100.9829758 22.01507827 384 2.115893419e-38
-99.23902439 22.0724092 385 2.115893419e-38
-97.23209653 22.0724092 385 2.115893419e-38
-95.71984487 22.18707107 387 2.115893419e-38
-93.94461671 22.244402 388 2.115893419e-38
-92.15896295 22.30173294 389 2.115893419e-38
-90.36288359 22.35906387 390 2.115893419e-38
-88.78286553 22.47372574 392 2.115893419e-38
-86.73944807 22.47372574 392 2.115893419e-38
-84.91209191 22.53105667 393 2.115893419e-38
-83.07431015 22.5883876 394 2.115893419e-38
-81.2261028 22.64571853 395 2.115893419e-38
-79.16704694 22.64571853 395 2.115893419e-38
-77.10799108 22.64571853 395 2.115893419e-38
-75.04893522 22.64571853 395 2.115893419e-38
-72.80509486 22.5883876 394 2.115893419e-38
-70.39210839 22.47372574 392 2.115893419e-38
-68.34869093 22.47372574 392 2.115893419e-38
-66.30527347 22.47372574 392 2.115893419e-38
-64.26185601 22.47372574 392 2.115893419e-38
-62.21843854 22.47372574 392 2.115893419e-38
-60.32852879 22.53105667 393 2.115893419e-38
-58.42819344 22.5883876 394 2.115893419e-38
-56.37435038 22.5883876 394 2.115893419e-38
-54.45837663 22.64571853 395 2.115893419e-38
-52.39932077 22.64571853 395 2.115893419e-38
-50.46770862 22.70304947 396 2.115893419e-38
-48.40343996 22.70304947 396 2.115893419e-38
-46.3391713 22.70304947 396 2.115893419e-38
-44.27490264 22.70304947 396 2.115893419e-38
-42.21063398 22.70304947 396 2.115893419e-38
-40.04498561 22.64571853 395 2.115893419e-38
-37.98592975 22.64571853 395 2.115893419e-38
-35.83591978 22.5883876 394 2.115893419e-38
-33.78207672 22.5883876 394 2.115893419e-38
-31.64770515 22.53105667 393 2.115893419e-38
-29.52375918 22.47372574 392 2.115893419e-38
-27.34013589 22.35906387 390 2.115893419e-38
-25.30714403 22.35906387 390 2.115893419e-38
-23.15479754 22.244402 388 2.115893419e-38
-21.13223128 22.244402 388 2.115893419e-38
-19.06041331 22.18707107 387 2.115893419e-38
-16.99902093 22.12974014 386 2.115893419e-38
-15.02570638 22.18707107 387 2.115893419e-38
-13.04196623 22.244402 388 2.115893419e-38
-11.04780049 22.30173294 389 2.115893419e-38
-9.11277229 22.53105667 393 2.115893419e-38
-7.100091862 22.64571853 395 2.115893419e-38
-5.066560235 22.7603804 397 2.115893419e-38
-3.019726727 22.9323732 400 2.115893419e-38
-0.9369433869 22.98970413 401 2.115893419e-38
1.15338927 22.98970413 401 2.115893419e-38
3.243721927 22.98970413 401 2.115893419e-38
5.334054585 22.98970413 401 2.115893419e-38
7.424387242 22.98970413 401 2.115893419e-38
9.514719899 22.98970413 401 2.115893419e-38
11.57611228 22.9323732 400 2.115893419e-38
13.66123213 22.9323732 400 2.115893419e-38
15.74635199 22.9323732 400 2.115893419e-38
17.78689317 22.87504227 399 2.115893419e-38
19.86680023 22.87504227 399 2.115893419e-38
21.94670728 22.87504227 399 2.115893419e-38
23.96639726 22.81771133 398 2.115893419e-38
26.04109152 22.81771133 398 2.115893419e-38
28.11578578 22.81771133 398 2.115893419e-38
30.26633552 22.87504227 399 2.115893419e-38
32.34624257 22.87504227 399 2.115893419e-38
34.42614963 22.87504227 399 2.115893419e-38
36.59755057 22.9323732 400 2.115893419e-38
38.68267042 22.9323732 400 2.115893419e-38
40.76779028 22.9323732 400 2.115893419e-38
42.85291014 22.9323732 400 2.115893419e-38
44.93803 22.9323732 400 2.115893419e-38
47.02314985 22.9323732 400 2.115893419e-38
48.98549904 22.87504227 399 2.115893419e-38
51.0654061 22.87504227 399 2.115893419e-38
53.14531315 22.87504227 399 2.115893419e-38
55.22522021 22.87504227 399 2.115893419e-38
57.30512727 22.87504227 399 2.115893419e-38
59.23619965 22.81771133 398 2.115893419e-38
61.31089391 22.81771133 398 2.115893419e-38
63.2263279 22.7603804 397 2.115893419e-38
65.13133629 22.70304947 396 2.115893419e-38
67.02591907 22.64571853 395 2.115893419e-38
68.91007626 22.5883876 394 2.115893419e-38
70.60369638 22.47372574 392 2.115893419e-38
72.64711384 22.47372574 392 2.115893419e-38
74.49999423 22.4163948 391 2.115893419e-38
76.53819889 22.4163948 391 2.115893419e-38
78.57640355 22.4163948 391 2.115893419e-38
81.02695915 22.53105667 393 2.115893419e-38
83.28697768 22.5883876 394 2.115893419e-38
85.55742181 22.64571853 395 2.115893419e-38
88.0601054 22.7603804 397 2.115893419e-38
90.12958686 22.7603804 397 2.115893419e-38
92.43130779 22.81771133 398 2.115893419e-38
94.50600205 22.81771133 398 2.115893419e-38
96.5806963 22.81771133 398 2.115893419e-38
98.65539056 22.81771133 398 2.115893419e-38
100.7300848 22.81771133 398 2.115893419e-38
102.5464756 22.7603804 397 2.115893419e-38
104.3524408 22.70304947 396 2.115893419e-38
106.1479804 22.64571853 395 2.115893419e-38
108.2070363 22.64571853 395 2.115893419e-38
110.2660921 22.64571853 395 2.115893419e-38
112.325148 22.64571853 395 2.115893419e-38
114.3842038 22.64571853 395 2.115893419e-38
116.7380528 22.70304947 396 2.115893419e-38
119.1023273 22.7603804 397 2.115893419e-38
121.1718087 22.7603804 397 2.115893419e-38
123.2412902 22.7603804 397 2.115893419e-38
125.3107717 22.7603804 397 2.115893419e-38
126.738539 22.64571853 395 2.115893419e-38
128.7975949 22.64571853 395 2.115893419e-38
130.5253681 22.5883876 394 2.115893419e-38
132.5792111 22.5883876 394 2.115893419e-38
134.2913459 22.53105667 393 2.115893419e-38
136.6868972 22.5883876 394 2.115893419e-38
139.0928742 22.64571853 395 2.115893419e-38
141.5092767 22.70304947 396 2.115893419e-38
143.9361048 22.7603804 397 2.115893419e-38
146.3733585 22.81771133 398 2.115893419e-38
148.8210378 22.87504227 399 2.115893419e-38
151.2791427 22.9323732 400 2.115893419e-38
153.3642626 22.9323732 400 2.115893419e-38
156.2266294 23.04703507 402 2.115893419e-38
158.7160111 23.104366 403 2.115893419e-38
160.8167693 23.104366 403 2.115893419e-38
163.3217894 23.16169693 404 2.115893419e-38
165.8372352 23.21902786 405 2.115893419e-38
167.948419 23.21902786 405 2.115893419e-38
169.6397026 23.16169693 404 2.115893419e-38
171.7456737 23.16169693 404 2.115893419e-38
173.4213189 23.104366 403 2.115893419e-38
175.5220771 23.104366 403 2.115893419e-38
177.6228354 23.104366 403 2.115893419e-38
179.2776294 23.04703507 402 2.115893419e-38
181.3731748 23.04703507 402 2.115893419e-38
183.4687203 23.04703507 402 2.115893419e-38
185.5642658 23.04703507 402 2.115893419e-38
187.6598112 23.04703507 402 2.115893419e-38
189.7553567 23.04703507 402 2.115893419e-38
192.3281432 23.104366 403 2.115893419e-38
194.4289014 23.104366 403 2.115893419e-38
197.0173263 23.16169693 404 2.115893419e-38
199.1232974 23.16169693 404 2.115893419e-38
201.7273607 23.21902786 405 2.115893419e-38
203.8385446 23.21902786 405 2.115893419e-38
206.9667641 23.33368973 407 2.115893419e-38
209.0883736 23.33368973 407 2.115893419e-38
211.209983 23.33368973 407 2.115893419e-38
213.3315925 23.33368973 407 2.115893419e-38
215.4532019 23.33368973 407 2.115893419e-38
217.0402295 23.2763588 406 2.115893419e-38
219.1566262 23.2763588 406 2.115893419e-38
220.7280154 23.21902786 405 2.115893419e-38
222.8391993 23.21902786 405 2.115893419e-38
224.3949501 23.16169693 404 2.115893419e-38
226.5009211 23.16169693 404 2.115893419e-38
228.6068922 23.16169693 404 2.115893419e-38
230.1417918 23.104366 403 2.115893419e-38
232.24255 23.104366 403 2.115893419e-38
233.1803142 22.98970413 401 2.115893419e-38
234.683937 22.9323732 400 2.115893419e-38
236.1771343 22.87504227 399 2.115893419e-38
237.6599059 22.81771133 398 2.115893419e-38
239.1322519 22.7603804 397 2.115893419e-38
240.5941723 22.70304947 396 2.115893419e-38
242.0456671 22.64571853 395 2.115893419e-38
243.4867363 22.5883876 394 2.115893419e-38
245.5405794 22.5883876 394 2.115893419e-38
246.9660102 22.53105667 393 2.115893419e-38
-110.4134701 23.89170587 382 2.115893419e-38
-108.4221806 23.89170587 382 2.115893419e-38
-106.4308912 23.89170587 382 2.115893419e-38
-104.4396017 23.89170587 382 2.115893419e-38
-102.7165015 23.9542496 383 2.115893419e-38
-100.7199993 23.9542496 383 2.115893419e-38
-98.98126069 24.01679333 384 2.115893419e-38
-96.97954563 24.01679333 384 2.115893419e-38
-95.22516867 24.07933707 385 2.115893419e-38
-93.46036611 24.1418808 386 2.115893419e-38
-91.68513795 24.20442453 387 2.115893419e-38
-89.66778448 24.20442453 387 2.115893419e-38
-87.87691792 24.26696826 388 2.115893419e-38
-86.07562576 24.329512 389 2.115893419e-38
-84.0478467 24.329512 389 2.115893419e-38
-82.23091614 24.39205573 390 2.115893419e-38
-80.40355999 24.45459946 391 2.115893419e-38
-78.56577823 24.5171432 392 2.115893419e-38
-76.52236077 24.5171432 392 2.115893419e-38
-74.47894331 24.5171432 392 2.115893419e-38
-72.25074134 24.45459946 391 2.115893419e-38
-70.21253668 24.45459946 391 2.115893419e-38
-68.17433202 24.45459946 391 2.115893419e-38
-66.13612736 24.45459946 391 2.115893419e-38
-64.0979227 24.45459946 391 2.115893419e-38
-62.05971804 24.45459946 391 2.115893419e-38
-60.02151338 24.45459946 391 2.115893419e-38
-58.13160362 24.5171432 392 2.115893419e-38
-56.08818616 24.5171432 392 2.115893419e-38
-54.18263801 24.57968693 393 2.115893419e-38
-52.13400775 24.57968693 393 2.115893419e-38
-50.2128212 24.64223066 394 2.115893419e-38
-48.15897814 24.64223066 394 2.115893419e-38
-46.10513508 24.64223066 394 2.115893419e-38
-44.05129202 24.64223066 394 2.115893419e-38
-41.99744896 24.64223066 394 2.115893419e-38
-39.9436059 24.64223066 394 2.115893419e-38
-37.79359593 24.57968693 393 2.115893419e-38
-35.74496567 24.57968693 393 2.115893419e-38
-33.6105941 24.5171432 392 2.115893419e-38
-31.56717664 24.5171432 392 2.115893419e-38
-29.44844347 24.45459946 391 2.115893419e-38
-27.34013589 24.39205573 390 2.115893419e-38
-25.24225392 24.329512 389 2.115893419e-38
-23.15479754 24.26696826 388 2.115893419e-38
-21.07776677 24.20442453 387 2.115893419e-38
-19.06041331 24.20442453 387 2.115893419e-38
-16.99902093 24.1418808 386 2.115893419e-38
-14.98688027 24.1418808 386 2.115893419e-38
-13.00835292 24.20442453 387 2.115893419e-38
-11.04780049 24.329512 389 2.115893419e-38
-9.11277229 24.57968693 393 2.115893419e-38
-7.100091862 24.70477439 395 2.115893419e-38
-5.066560235 24.82986186 397 2.115893419e-38
-3.019726727 25.01749306 400 2.115893419e-38
-0.9369433869 25.08003679 401 2.115893419e-38
1.15338927 25.08003679 401 2.115893419e-38
3.243721927 25.08003679 401 2.115893419e-38
5.320752703 25.01749306 400 2.115893419e-38
7.405872561 25.01749306 400 2.115893419e-38
9.490992418 25.01749306 400 2.115893419e-38
11.54717199 24.95494932 399 2.115893419e-38
13.62707905 24.95494932 399 2.115893419e-38
15.70698611 24.95494932 399 2.115893419e-38
17.78689317 24.95494932 399 2.115893419e-38
19.81700875 24.89240559 398 2.115893419e-38
21.89170301 24.89240559 398 2.115893419e-38
23.96639726 24.89240559 398 2.115893419e-38
26.04109152 24.89240559 398 2.115893419e-38
28.11578578 24.89240559 398 2.115893419e-38
30.19048004 24.89240559 398 2.115893419e-38
32.34624257 24.95494932 399 2.115893419e-38
34.42614963 24.95494932 399 2.115893419e-38
36.50605669 24.95494932 399 2.115893419e-38
38.68267042 25.01749306 400 2.115893419e-38
40.76779028 25.01749306 400 2.115893419e-38
42.74577786 24.95494932 399 2.115893419e-38
44.82568492 24.95494932 399 2.115893419e-38
46.90559198 24.95494932 399 2.115893419e-38
48.98549904 24.95494932 399 2.115893419e-38
51.0654061 24.95494932 399 2.115893419e-38
53.01211688 24.89240559 398 2.115893419e-38
55.08681114 24.89240559 398 2.115893419e-38
57.1615054 24.89240559 398 2.115893419e-38
59.23619965 24.89240559 398 2.115893419e-38
61.15684644 24.82986186 397 2.115893419e-38
63.06706763 24.76731813 396 2.115893419e-38
64.96686322 24.70477439 395 2.115893419e-38
66.8562332 24.64223066 394 2.115893419e-38
68.91007626 24.64223066 394 2.115893419e-38
70.60369638 24.5171432 392 2.115893419e-38
72.46178957 24.45459946 391 2.115893419e-38
74.49999423 24.45459946 391 2.115893419e-38
76.34244902 24.39205573 390 2.115893419e-38
78.37544089 24.39205573 390 2.115893419e-38
80.61460822 24.45459946 391 2.115893419e-38
82.86420114 24.5171432 392 2.115893419e-38
85.12421967 24.57968693 393 2.115893419e-38
87.61647767 24.70477439 395 2.115893419e-38
89.67553353 24.70477439 395 2.115893419e-38
91.96682885 24.76731813 396 2.115893419e-38
94.03109751 24.76731813 396 2.115893419e-38
96.33803124 24.82986186 397 2.115893419e-38
98.4075127 24.82986186 397 2.115893419e-38
100.2239035 24.76731813 396 2.115893419e-38
102.2881721 24.76731813 396 2.115893419e-38
104.0889245 24.70477439 395 2.115893419e-38
106.1479804 24.70477439 395 2.115893419e-38
107.9330944 24.64223066 394 2.115893419e-38
109.9869375 24.64223066 394 2.115893419e-38
112.0407805 24.64223066 394 2.115893419e-38
114.3842038 24.70477439 395 2.115893419e-38
116.4432597 24.70477439 395 2.115893419e-38
118.8023214 24.76731813 396 2.115893419e-38
120.8665901 24.76731813 396 2.115893419e-38
122.3099958 24.64223066 394 2.115893419e-38
124.0481946 24.57968693 393 2.115893419e-38
125.7759678 24.5171432 392 2.115893419e-38
127.1672456 24.39205573 390 2.115893419e-38
129.2002374 24.39205573 390 2.115893419e-38
130.8967338 24.329512 389 2.115893419e-38
132.9245129 24.329512 389 2.115893419e-38
134.9522919 24.329512 389 2.115893419e-38
138.0364726 24.5171432 392 2.115893419e-38
140.4372367 24.57968693 393 2.115893419e-38
142.8484264 24.64223066 394 2.115893419e-38
145.2700417 24.70477439 395 2.115893419e-38
148.0750677 24.82986186 397 2.115893419e-38
150.522747 24.89240559 398 2.115893419e-38
152.9808519 24.95494932 399 2.115893419e-38
155.8380059 25.08003679 401 2.115893419e-38
158.3221748 25.14258052 402 2.115893419e-38
160.8167693 25.20512425 403 2.115893419e-38
163.3217894 25.26766799 404 2.115893419e-38
165.4277605 25.26766799 404 2.115893419e-38
167.5337316 25.26766799 404 2.115893419e-38
169.6397026 25.26766799 404 2.115893419e-38
171.3205606 25.20512425 403 2.115893419e-38
173.4213189 25.20512425 403 2.115893419e-38
175.5220771 25.20512425 403 2.115893419e-38
177.1820839 25.14258052 402 2.115893419e-38
179.2776294 25.14258052 402 2.115893419e-38
209.6021042 25.51784292 408 2.115893419e-38
219.1566262 25.39275545 406 2.115893419e-38
220.7280154 25.33021172 405 2.115893419e-38
222.8391993 25.33021172 405 2.115893419e-38
224.9503831 25.33021172 405 2.115893419e-38
227.061567 25.33021172 405 2.115893419e-38
228.6068922 25.26766799 404 2.115893419e-38
229.5707203 25.14258052 402 2.115893419e-38
231.0899816 25.08003679 401 2.115893419e-38
232.5988172 25.01749306 400 2.115893419e-38
234.683937 25.01749306 400 2.115893419e-38
236.1771343 24.95494932 399 2.115893419e-38
237.0627704 24.82986186 397 2.115893419e-38
238.5299036 24.76731813 396 2.115893419e-38
239.9866113 24.70477439 395 2.115893419e-38
241.4328933 24.64223066 394 2.115893419e-38
242.8687497 24.57968693 393 2.115893419e-38
244.2941805 24.5171432 392 2.115893419e-38
246.337598 24.5171432 392 2.115893419e-38
-110.4134701 25.88299533 382 2.115893419e-38
-108.4221806 25.88299533 382 2.115893419e-38
-106.4308912 25.88299533 382 2.115893419e-38
-104.4396017 25.88299533 382 2.115893419e-38
-102.4483122 25.88299533 382 2.115893419e-38
-100.7199993 25.95075187 383 2.115893419e-38
-98.723497 25.95075187 383 2.115893419e-38
-96.97954563 26.0185084 384 2.115893419e-38
-95.22516867 26.08626493 385 2.115893419e-38
-93.21824081 26.08626493 385 2.115893419e-38
-91.44822544 26.15402146 386 2.115893419e-38
-89.43608478 26.15402146 386 2.115893419e-38
-87.65043102 26.22177799 387 2.115893419e-38
-85.63307756 26.22177799 387 2.115893419e-38
-83.8317854 26.28953453 388 2.115893419e-38
-82.02006764 26.35729106 389 2.115893419e-38
-80.19792428 26.42504759 390 2.115893419e-38
-78.16493242 26.42504759 390 2.115893419e-38
-76.32715066 26.49280412 391 2.115893419e-38
-74.0989487 26.42504759 390 2.115893419e-38
-72.06595684 26.42504759 390 2.115893419e-38
-70.03296498 26.42504759 390 2.115893419e-38
-67.99997312 26.42504759 390 2.115893419e-38
-65.96698125 26.42504759 390 2.115893419e-38
-63.93398939 26.42504759 390 2.115893419e-38
-61.90099753 26.42504759 390 2.115893419e-38
-59.86800567 26.42504759 390 2.115893419e-38
-57.83501381 26.42504759 390 2.115893419e-38
-55.80202195 26.42504759 390 2.115893419e-38
-53.9068994 26.49280412 391 2.115893419e-38
-51.86869473 26.49280412 391 2.115893419e-38
-49.83049007 26.49280412 391 2.115893419e-38
-47.91451632 26.56056066 392 2.115893419e-38
-45.87109886 26.56056066 392 2.115893419e-38
-43.8276814 26.56056066 392 2.115893419e-38
-41.78426394 26.56056066 392 2.115893419e-38
-39.74084648 26.56056066 392 2.115893419e-38
-37.69742902 26.56056066 392 2.115893419e-38
-35.56305745 26.49280412 391 2.115893419e-38
-33.52485279 26.49280412 391 2.115893419e-38
-31.40611961 26.42504759 390 2.115893419e-38
-29.37312775 26.42504759 390 2.115893419e-38
-27.27003298 26.35729106 389 2.115893419e-38
-25.17736381 26.28953453 388 2.115893419e-38
-23.09512023 26.22177799 387 2.115893419e-38
-21.07776677 26.22177799 387 2.115893419e-38
-19.01116159 26.15402146 386 2.115893419e-38
-16.99902093 26.15402146 386 2.115893419e-38
-14.98688027 26.15402146 386 2.115893419e-38
-13.00835292 26.22177799 387 2.115893419e-38
-11.04780049 26.35729106 389 2.115893419e-38
-9.11277229 26.62831719 393 2.115893419e-38
-7.100091862 26.76383025 395 2.115893419e-38
-5.066560235 26.89934332 397 2.115893419e-38
-3.019726727 27.10261291 400 2.115893419e-38
-0.9346068698 27.10261291 400 2.115893419e-38
1.15338927 27.17036945 401 2.115893419e-38
3.235632845 27.10261291 400 2.115893419e-38
5.320752703 27.10261291 400 2.115893419e-38
7.405872561 27.10261291 400 2.115893419e-38
9.467264937 27.03485638 399 2.115893419e-38
11.54717199 27.03485638 399 2.115893419e-38
13.59292597 26.96709985 398 2.115893419e-38
15.66762023 26.96709985 398 2.115893419e-38
17.74231449 26.96709985 398 2.115893419e-38
19.81700875 26.96709985 398 2.115893419e-38
21.89170301 26.96709985 398 2.115893419e-38
23.96639726 26.96709985 398 2.115893419e-38
25.97566164 26.89934332 397 2.115893419e-38
28.0451431 26.89934332 397 2.115893419e-38
30.19048004 26.96709985 398 2.115893419e-38
32.2651743 26.96709985 398 2.115893419e-38
34.42614963 27.03485638 399 2.115893419e-38
36.50605669 27.03485638 399 2.115893419e-38
38.58596375 27.03485638 399 2.115893419e-38
40.66587081 27.03485638 399 2.115893419e-38
42.74577786 27.03485638 399 2.115893419e-38
44.71333985 26.96709985 398 2.115893419e-38
46.7880341 26.96709985 398 2.115893419e-38
48.86272836 26.96709985 398 2.115893419e-38
50.93742262 26.96709985 398 2.115893419e-38
52.87892061 26.89934332 397 2.115893419e-38
54.94840206 26.89934332 397 2.115893419e-38
57.01788352 26.89934332 397 2.115893419e-38
58.93853031 26.83158679 396 2.115893419e-38
60.8487515 26.76383025 395 2.115893419e-38
62.90780736 26.76383025 395 2.115893419e-38
64.80239014 26.69607372 394 2.115893419e-38
66.68654733 26.62831719 393 2.115893419e-38
68.73517759 26.62831719 393 2.115893419e-38
70.42358491 26.49280412 391 2.115893419e-38
72.2764653 26.42504759 390 2.115893419e-38
74.30945716 26.42504759 390 2.115893419e-38
76.14669916 26.35729106 389 2.115893419e-38
78.17447822 26.35729106 389 2.115893419e-38
80.20225728 26.35729106 389 2.115893419e-38
82.44142461 26.42504759 390 2.115893419e-38
84.47441647 26.42504759 390 2.115893419e-38
86.7292222 26.49280412 391 2.115893419e-38
88.76742686 26.49280412 391 2.115893419e-38
91.03787099 26.56056066 392 2.115893419e-38
93.31874071 26.62831719 393 2.115893419e-38
95.36737097 26.62831719 393 2.115893419e-38
97.6638791 26.69607372 394 2.115893419e-38
99.71772216 26.69607372 394 2.115893419e-38
101.7715652 26.69607372 394 2.115893419e-38
103.8254083 26.69607372 394 2.115893419e-38
105.8792513 26.69607372 394 2.115893419e-38
107.9330944 26.69607372 394 2.115893419e-38
109.7077828 26.62831719 393 2.115893419e-38
111.7564131 26.62831719 393 2.115893419e-38
113.8050433 26.62831719 393 2.115893419e-38
115.8536736 26.62831719 393 2.115893419e-38
117.9023038 26.62831719 393 2.115893419e-38
119.6457154 26.56056066 392 2.115893419e-38
121.3787014 26.49280412 391 2.115893419e-38
123.1012618 26.42504759 390 2.115893419e-38
124.4925396 26.28953453 388 2.115893419e-38
126.189036 26.22177799 387 2.115893419e-38
128.2063894 26.22177799 387 2.115893419e-38
129.8872474 26.15402146 386 2.115893419e-38
131.8993881 26.15402146 386 2.115893419e-38
134.2584498 26.22177799 387 2.115893419e-38
136.6279371 26.28953453 388 2.115893419e-38
139.7225434 26.49280412 391 2.115893419e-38
142.1233075 26.56056066 392 2.115893419e-38
144.5344972 26.62831719 393 2.115893419e-38
147.7020826 26.83158679 396 2.115893419e-38
150.1445492 26.89934332 397 2.115893419e-38
152.9808519 27.03485638 399 2.115893419e-38
155.4493824 27.10261291 400 2.115893419e-38
157.9283386 27.17036945 401 2.115893419e-38
220.7280154 27.44139558 405 2.115893419e-38
222.8391993 27.44139558 405 2.115893419e-38
224.9503831 27.44139558 405 2.115893419e-38
226.5009211 27.37363904 404 2.115893419e-38
228.6068922 27.37363904 404 2.115893419e-38
229.5707203 27.23812598 402 2.115893419e-38
231.0899816 27.17036945 401 2.115893419e-38
232.0173201 27.03485638 399 2.115893419e-38
234.0972272 27.03485638 399 2.115893419e-38
235.5852116 26.96709985 398 2.115893419e-38
236.465635 26.83158679 396 2.115893419e-38
237.9275554 26.76383025 395 2.115893419e-38
239.3790502 26.69607372 394 2.115893419e-38
240.8201194 26.62831719 393 2.115893419e-38
242.2507631 26.56056066 392 2.115893419e-38
244.2941805 26.56056066 392 2.115893419e-38
245.7091857 26.49280412 391 2.115893419e-38
-110.4134701 27.8742848 382 2.115893419e-38
-108.4221806 27.8742848 382 2.115893419e-38
-106.4308912 27.8742848 382 2.115893419e-38
-104.4396017 27.8742848 382 2.115893419e-38
-102.4483122 27.8742848 382 2.115893419e-38
-100.7199993 27.94725413 383 2.115893419e-38
-98.98126069 28.02022346 384 2.115893419e-38
-96.97954563 28.02022346 384 2.115893419e-38
-94.97783057 28.02022346 384 2.115893419e-38
-93.21824081 28.09319279 385 2.115893419e-38
-91.21131294 28.09319279 385 2.115893419e-38
-89.43608478 28.16616212 386 2.115893419e-38
-87.42394412 28.16616212 386 2.115893419e-38
-85.63307756 28.23913146 387 2.115893419e-38
-83.6157241 28.23913146 387 2.115893419e-38
-81.59837063 28.23913146 387 2.115893419e-38
-79.78665288 28.31210079 388 2.115893419e-38
-77.96450952 28.38507012 389 2.115893419e-38
-75.93673046 28.38507012 389 2.115893419e-38
-74.0989487 28.45803945 390 2.115893419e-38
-71.88117233 28.38507012 389 2.115893419e-38
-69.85339327 28.38507012 389 2.115893419e-38
-67.82561421 28.38507012 389 2.115893419e-38
-65.79783515 28.38507012 389 2.115893419e-38
-63.77005609 28.38507012 389 2.115893419e-38
-61.74227703 28.38507012 389 2.115893419e-38
-59.71449796 28.38507012 389 2.115893419e-38
-57.6867189 28.38507012 389 2.115893419e-38
-55.65893984 28.38507012 389 2.115893419e-38
-53.63116078 28.38507012 389 2.115893419e-38
-51.60338172 28.38507012 389 2.115893419e-38
-49.70304637 28.45803945 390 2.115893419e-38
-47.6700545 28.45803945 390 2.115893419e-38
-45.63706264 28.45803945 390 2.115893419e-38
-43.60407078 28.45803945 390 2.115893419e-38
-41.67767143 28.53100878 391 2.115893419e-38
-39.53808706 28.45803945 390 2.115893419e-38
-37.5050952 28.45803945 390 2.115893419e-38
-35.47210334 28.45803945 390 2.115893419e-38
-33.35337016 28.38507012 389 2.115893419e-38
-31.3255911 28.38507012 389 2.115893419e-38
-29.29781204 28.38507012 389 2.115893419e-38
-27.19993007 28.31210079 388 2.115893419e-38
-25.11247369 28.23913146 387 2.115893419e-38
-23.09512023 28.23913146 387 2.115893419e-38
-21.07776677 28.23913146 387 2.115893419e-38
-19.01116159 28.16616212 386 2.115893419e-38
-16.99902093 28.16616212 386 2.115893419e-38
-14.98688027 28.16616212 386 2.115893419e-38
-13.00835292 28.23913146 387 2.115893419e-38
-11.01939997 28.31210079 388 2.115893419e-38
-9.089584574 28.60397812 392 2.115893419e-38
-7.082116946 28.74991678 394 2.115893419e-38
-5.053798119 28.89585544 396 2.115893419e-38
-3.01217741 29.11476344 399 2.115893419e-38
-0.9346068698 29.18773277 400 2.115893419e-38
1.150512988 29.18773277 400 2.115893419e-38
3.227543763 29.11476344 399 2.115893419e-38
5.307450821 29.11476344 399 2.115893419e-38
7.387357879 29.11476344 399 2.115893419e-38
9.467264937 29.11476344 399 2.115893419e-38
11.51823171 29.04179411 398 2.115893419e-38
13.55877289 28.96882478 397 2.115893419e-38
15.62825435 28.96882478 397 2.115893419e-38
17.69773581 28.96882478 397 2.115893419e-38
19.76721727 28.96882478 397 2.115893419e-38
21.83669873 28.96882478 397 2.115893419e-38
23.90618019 28.96882478 397 2.115893419e-38
25.97566164 28.96882478 397 2.115893419e-38
28.0451431 28.96882478 397 2.115893419e-38
30.19048004 29.04179411 398 2.115893419e-38
32.2651743 29.04179411 398 2.115893419e-38
34.33986856 29.04179411 398 2.115893419e-38
36.41456281 29.04179411 398 2.115893419e-38
38.48925707 29.04179411 398 2.115893419e-38
40.56395133 29.04179411 398 2.115893419e-38
42.63864559 29.04179411 398 2.115893419e-38
44.60099477 28.96882478 397 2.115893419e-38
46.67047623 28.96882478 397 2.115893419e-38
48.61718701 28.89585544 396 2.115893419e-38
50.68145567 28.89585544 396 2.115893419e-38
