0,0,0,0,0,0,0,0,0,0,0,0,0,333,333,333,332,332,333,333,333,333,334,335,0,335,335,335,335,0,335,335,335,336,335,335,335,336,336,336,336,336,0,0,0,0,0,0,0,0,0,0,0,0,0,0,0,0,0,0,322,322,0,0,0,0,0,0,0,0,361,362,0,0,367,367,0,0,0,0,0,0,0,0,0,0,0,0,383,383,383,383,383,0,0,0,382,382,382,381,381,381,381,381,381,381,381,381,380,380,380,379,379,380,381,381,382,381,381,381,380,380,379,379,379,379,379,379,379,380,380,380,380,380,380,379,379,379,379,379,379,380,381,382,384,385,385,386,387,387,388,389,390,391,392,393,393,394,394,395,396,397,399,401,402,405,405,406,406,407,407,407,410,412,414,420,422,424,426,427,427,427,428,428,428,428,428,0,0,0,0,0,0,0,0,0,0,0,0,0,0,702,701,703,705,705,705,0,0,0,662,0,0,0,618,617,613,611,609,607,605,601,599,596,593,590,586,579,576,575,574,571,568,567,0,0,563,564,564,564,564,0,0,0,0,518,516,513,513,512,512,511,509,508,507,506,504,499,496,493,490,488,486,484,483,483,483,482,482,482,481,480,479,479,479,478,478,477,476,476,476,477,477,478,478,480,480,481,481,489,0,501,504,509,509,509,0,0,509,508,0,508,0,0,0,0,0,0,0,0,473,474,0,0,483,487,0,492,491,492
0,0,0,0,0,0,0,0,0,0,0,333,333,333,333,333,332,333,333,333,333,333,334,334,335,335,335,335,335,335,335,335,335,336,335,336,335,336,336,336,336,336,0,0,0,0,0,0,0,0,0,0,0,0,0,0,0,0,0,0,322,322,0,0,0,0,0,361,361,361,361,361,361,361,361,361,361,362,365,0,0,0,0,0,0,0,0,0,0,0,0,0,0,383,0,0,0,0,382,381,381,381,381,381,380,380,381,381,380,380,380,380,380,381,381,381,382,382,381,381,380,380,379,379,379,379,379,379,379,379,379,379,379,379,379,379,378,378,379,379,380,381,382,383,385,386,386,387,387,387,388,390,390,391,392,393,393,394,394,394,395,397,400,402,403,406,407,407,408,409,409,410,413,414,417,421,423,425,426,427,428,427,428,428,428,428,428,428,0,0,0,0,0,0,0,0,0,0,0,0,0,700,700,700,704,705,0,0,0,0,0,0,624,621,619,618,615,613,612,610,609,604,601,597,594,590,585,578,576,574,573,571,568,566,565,564,563,562,562,0,0,0,0,0,0,0,518,514,513,512,512,511,509,508,507,506,504,499,496,493,490,488,486,484,484,484,484,483,483,482,482,481,480,479,479,478,477,477,476,476,476,477,477,478,478,480,481,481,486,490,0,503,505,509,510,510,511,512,511,510,514,514,0,0,0,0,0,0,0,0,471,475,476,0,482,0,0,492,492,493
0,0,0,0,0,0,0,0,0,0,0,0,333,333,333,333,0,0,0,332,0,0,0,0,0,335,0,0,0,0,0,0,335,335,335,335,335,336,336,335,335,335,0,0,0,0,0,0,0,0,0,0,0,0,0,0,0,0,0,0,321,322,0,0,0,0,360,360,360,0,0,0,0,0,0,0,0,0,0,0,0,0,0,0,0,0,0,0,0,0,0,0,0,0,0,0,0,382,382,381,381,381,381,381,380,380,381,0,0,0,0,0,0,0,0,0,0,0,0,0,0,380,379,379,379,379,379,379,379,379,379,379,379,379,380,379,379,379,380,380,381,382,383,384,387,387,388,388,388,388,389,390,391,391,392,392,393,393,394,394,396,397,401,403,405,408,409,409,412,412,413,415,416,417,419,423,424,425,427,428,428,428,428,428,0,429,429,429,0,0,0,0,0,0,0,0,0,0,0,0,0,0,696,696,698,0,694,687,0,0,0,0,623,622,620,618,615,614,613,612,610,607,603,600,595,591,585,577,574,573,572,570,568,566,565,564,562,562,561,561,561,559,0,0,0,0,0,515,513,512,511,511,509,508,507,505,504,499,497,494,491,489,487,484,484,484,484,484,484,483,483,481,480,479,479,479,477,477,476,476,477,478,479,480,481,484,485,486,493,496,0,504,507,510,511,511,511,511,512,514,515,516,516,0,0,0,0,0,0,0,0,476,0,0,0,488,493,493,493,0
0,0,0,0,0,0,0,0,0,325,0,332,333,333,333,332,332,332,332,332,333,0,0,335,0,0,0,0,0,0,0,0,335,335,335,335,335,335,335,0,0,0,0,0,0,0,0,0,0,0,0,0,0,0,344,342,346,0,0,0,0,0,0,0,0,360,360,0,0,0,359,359,359,0,359,0,0,0,0,0,0,0,0,0,0,0,0,0,0,0,0,0,0,0,382,382,382,382,381,381,380,380,380,380,380,380,380,0,0,0,0,0,0,381,381,381,0,0,0,0,0,380,380,380,380,380,380,380,380,380,380,380,380,380,381,381,0,383,381,384,385,386,387,0,0,0,390,390,390,390,390,391,391,391,392,392,393,393,0,394,396,402,405,407,410,411,412,413,413,414,414,416,417,418,419,423,425,426,427,428,428,428,429,429,429,429,429,429,0,0,0,0,0,0,0,0,0,0,0,0,0,0,0,683,686,683,679,674,0,0,0,0,623,622,620,619,617,616,615,614,613,608,605,601,597,592,587,578,574,573,572,570,568,566,565,563,561,560,560,559,559,557,555,0,0,0,524,518,513,513,512,511,509,508,508,507,506,503,502,501,498,497,492,490,488,487,486,485,485,485,484,482,482,481,480,479,478,478,477,476,477,479,480,481,484,486,487,489,496,499,504,506,508,510,511,511,511,511,512,514,514,515,516,513,0,0,0,0,0,0,0,481,480,0,0,489,494,495,495,0
0,0,0,0,0,0,0,0,323,324,328,330,331,333,333,333,332,332,0,332,0,333,333,334,0,0,0,0,0,0,335,335,335,335,335,0,334,0,0,0,0,0,0,0,0,0,0,0,0,0,0,0,0,347,347,347,347,0,347,348,0,0,0,0,0,359,360,360,0,359,359,360,360,360,360,360,360,361,361,361,0,0,0,0,0,0,0,0,381,0,0,0,0,0,0,382,381,381,381,381,380,380,380,379,379,379,380,379,0,0,0,0,381,382,382,382,382,0,0,0,381,381,381,382,382,382,382,382,382,382,382,382,384,384,384,385,0,0,0,0,0,389,390,0,391,0,0,391,391,390,390,391,391,391,392,392,392,393,0,0,0,0,0,409,412,412,413,414,415,415,415,416,417,418,420,423,425,426,427,428,428,428,429,429,429,429,429,429,0,0,589,589,589,589,589,0,0,0,0,0,0,670,0,676,679,675,660,0,0,0,631,625,622,620,620,619,617,617,615,615,614,610,608,604,600,596,585,580,576,574,572,571,568,567,565,563,561,560,560,559,558,557,556,550,0,0,0,519,514,514,513,512,510,509,508,508,507,505,504,503,0,0,495,493,490,489,487,486,486,485,485,483,482,481,481,480,479,478,478,478,478,480,481,482,487,489,491,493,499,0,506,508,509,510,511,511,511,511,511,512,514,514,0,516,518,512,0,0,0,0,0,0,484,0,489,491,495,496,496,497
0,0,0,0,0,322,322,322,322,323,0,329,331,333,333,333,332,332,331,331,0,331,0,0,0,0,0,0,0,0,0,0,0,0,0,0,0,0,0,0,0,0,0,0,0,0,0,0,0,0,348,348,348,347,347,347,347,347,347,348,349,350,352,356,357,358,359,359,359,359,359,360,360,361,0,0,361,363,362,362,364,365,0,366,0,0,0,377,380,0,0,381,381,381,381,381,381,381,381,381,380,380,380,380,380,380,380,380,380,0,0,382,382,383,383,383,0,0,0,0,0,0,0,384,384,384,384,384,384,384,384,384,386,386,387,387,0,388,389,389,0,0,0,392,392,392,392,392,391,391,391,391,391,391,392,392,392,0,0,0,0,0,0,411,413,414,414,415,415,416,416,417,418,419,420,423,424,425,427,428,428,429,429,429,429,429,429,429,0,0,586,586,586,586,586,0,0,0,0,0,0,0,658,0,0,0,653,647,642,635,631,626,623,622,621,620,618,618,617,617,616,613,609,605,601,596,586,580,577,574,573,571,569,567,566,564,561,560,559,559,558,556,555,550,0,0,0,0,515,514,514,513,511,510,509,508,508,507,507,506,0,503,500,498,495,493,491,488,487,487,486,484,483,482,481,481,479,479,479,479,479,481,482,484,489,494,494,500,503,507,508,509,510,510,511,511,511,511,511,513,514,514,515,516,516,511,508,502,0,0,0,0,0,0,492,494,0,498,498,499
0,0,0,0,0,322,322,322,322,323,0,0,0,0,333,332,332,0,0,0,0,0,0,0,0,0,0,0,0,0,0,0,0,0,0,0,332,0,0,0,0,0,0,0,0,0,0,0,0,348,348,348,347,347,347,347,346,347,347,348,349,350,351,356,0,357,359,359,359,359,360,361,0,0,363,363,363,364,364,364,364,365,366,366,0,0,374,375,378,378,0,380,0,381,381,381,381,381,381,381,380,380,380,380,380,380,381,0,381,0,0,0,383,384,384,0,0,0,0,0,0,0,0,387,386,386,386,386,386,385,386,386,387,387,388,388,389,389,390,391,391,392,392,393,394,393,393,393,392,391,391,391,391,392,392,0,0,0,0,0,0,0,0,414,415,415,415,416,417,417,417,418,419,420,420,423,424,425,427,428,428,429,430,430,430,430,430,0,0,0,585,585,585,585,585,0,0,0,0,0,0,0,0,652,653,0,0,643,638,634,630,627,623,623,622,621,620,620,619,618,617,613,610,606,600,596,590,580,576,574,572,571,568,567,566,565,561,560,559,558,557,554,552,548,0,0,0,522,517,515,514,514,511,511,510,510,509,509,508,508,507,506,508,0,0,497,492,491,489,489,487,485,484,483,482,481,481,480,482,482,483,484,485,487,493,497,500,506,508,509,511,511,511,511,512,512,512,512,512,514,516,517,0,0,0,0,0,509,502,499,499,0,0,496,0,499,501,501,501,503
314,0,0,0,0,321,322,322,322,323,323,0,0,0,331,331,331,0,0,0,0,0,0,0,0,0,0,0,0,0,0,0,0,0,0,0,332,0,332,332,332,0,0,0,0,0,0,0,0,348,348,348,347,347,347,347,347,347,347,348,349,350,351,355,0,357,358,359,359,360,360,362,0,0,364,364,364,364,364,364,365,366,366,368,369,0,374,0,0,378,380,380,380,380,380,380,380,380,380,380,380,380,380,380,380,381,381,381,381,382,382,382,383,384,385,385,386,387,387,387,388,388,388,388,388,0,387,387,388,388,387,387,388,388,389,389,389,390,390,392,392,392,393,393,393,393,0,0,0,0,392,392,393,0,0,0,0,0,0,0,0,0,416,417,417,417,417,418,418,418,418,419,419,420,420,423,424,425,427,428,429,429,430,430,430,430,430,0,0,0,0,0,0,0,0,0,0,0,0,0,0,0,0,0,0,0,0,634,632,630,628,625,624,624,623,622,621,620,620,619,617,614,611,606,600,595,590,579,574,572,570,568,566,565,564,562,559,558,556,555,553,550,548,544,540,0,530,523,518,517,518,516,514,513,512,512,511,511,511,511,511,510,509,0,0,0,0,497,495,493,491,488,487,486,486,484,484,484,484,484,485,486,487,489,0,499,502,508,510,511,512,512,512,511,512,513,513,513,514,515,517,518,518,0,0,0,0,513,508,507,506,0,0,0,503,504,504,504,504,506
314,316,317,0,0,321,321,321,0,0,321,0,0,0,0,0,0,0,0,0,0,0,0,0,0,0,0,0,0,0,0,0,0,0,0,0,332,332,332,332,332,332,0,0,0,0,0,0,0,348,348,348,348,347,347,347,347,347,347,348,349,350,352,355,356,357,359,359,359,360,0,0,0,364,364,364,364,365,365,365,365,366,366,367,368,0,370,372,374,375,377,377,378,378,0,0,0,379,379,379,379,380,380,380,380,381,381,381,381,382,382,382,382,0,0,0,0,0,0,0,389,389,0,389,389,389,390,389,389,390,390,390,390,391,391,391,391,391,391,391,391,392,392,392,393,393,393,393,0,0,394,394,395,0,0,0,0,0,0,0,0,0,417,418,418,418,418,418,418,418,419,419,420,420,421,423,424,425,427,428,428,429,430,430,430,431,431,431,0,0,0,0,0,0,0,0,0,0,0,0,0,0,0,0,625,627,627,627,628,627,627,627,625,625,624,623,622,622,621,619,618,614,610,605,600,594,589,578,573,570,568,567,564,563,562,560,559,555,554,553,551,547,545,542,539,535,531,523,521,520,519,517,515,514,513,512,512,511,511,511,511,511,510,510,508,503,0,0,497,495,493,490,488,488,487,486,486,486,486,486,486,487,488,0,0,502,504,509,511,513,512,512,511,512,512,512,513,513,514,515,516,517,0,0,516,0,514,512,511,509,508,508,508,508,506,507,507,507,508,509
315,316,0,319,320,321,321,0,321,321,321,0,0,0,322,0,0,0,0,0,0,0,0,0,0,0,0,0,0,0,0,0,333,333,333,333,333,332,332,0,333,333,0,0,0,0,0,0,0,0,348,348,348,347,347,346,346,346,347,347,349,350,352,0,356,357,0,0,0,0,0,363,364,365,365,365,365,365,365,365,365,366,366,367,368,368,369,371,373,374,376,377,377,376,376,377,377,377,378,378,379,379,380,380,380,381,381,381,381,0,0,0,0,0,0,385,387,387,388,388,389,389,389,389,390,390,390,390,390,390,391,391,391,391,391,391,391,391,391,391,391,391,391,392,392,392,391,392,0,0,0,397,398,0,0,0,406,0,0,409,0,0,416,418,418,418,419,419,419,419,419,420,420,421,421,423,424,425,427,428,429,429,430,430,430,431,431,431,0,0,0,0,0,0,0,0,0,0,0,0,0,0,0,0,624,626,627,628,628,629,629,628,627,627,625,625,623,622,621,620,619,613,608,603,597,0,0,575,571,568,566,565,562,561,560,558,556,553,552,550,549,546,543,540,537,534,531,525,524,521,521,518,516,514,514,513,512,511,511,511,511,511,511,511,510,506,503,0,498,497,493,491,490,489,489,488,487,487,487,487,488,489,490,493,500,503,505,511,512,513,513,513,512,512,512,512,513,513,514,515,516,515,515,515,515,514,514,512,511,510,509,0,509,510,510,510,511,511,511,513
315,317,318,0,320,321,321,0,0,0,0,0,0,321,320,320,0,0,0,0,0,0,332,0,0,332,0,332,333,332,332,332,332,333,332,332,333,333,333,333,333,333,0,0,0,0,0,0,0,0,0,347,347,347,0,346,346,346,346,347,0,0,0,0,0,0,0,0,0,361,363,364,365,366,366,366,366,366,366,366,366,366,367,367,367,368,368,370,371,372,374,375,376,375,375,376,376,376,377,377,378,379,380,380,380,381,381,381,0,0,0,381,382,383,384,385,386,387,388,388,389,389,389,389,390,390,391,391,391,391,391,392,391,392,391,391,391,391,391,391,391,391,391,391,391,391,391,393,394,396,0,0,0,0,0,406,405,405,407,409,413,415,416,418,419,419,420,420,420,421,421,421,421,422,423,424,425,426,428,428,429,429,431,431,431,431,432,432,432,0,0,0,0,0,0,0,0,0,0,0,0,0,0,0,623,627,627,628,629,630,630,629,629,628,627,625,623,622,620,618,616,608,603,598,592,586,582,573,570,566,564,563,560,559,557,556,554,551,549,548,547,545,541,540,537,534,531,526,525,523,521,520,517,515,514,513,511,510,510,510,510,509,509,509,508,506,505,503,500,498,494,493,492,491,491,489,489,489,489,490,491,491,491,494,501,504,0,511,514,514,514,514,514,514,514,515,516,517,517,518,518,517,517,517,516,516,515,0,512,511,510,511,511,511,511,512,512,513,513,515
316,0,0,0,320,321,322,322,0,0,322,0,321,320,319,319,319,321,0,0,0,0,330,0,0,331,331,332,332,332,332,332,332,332,332,332,332,333,333,333,333,333,0,0,0,0,0,0,0,0,0,0,0,0,0,0,0,346,346,0,0,0,0,0,357,357,359,359,360,362,364,365,366,366,366,367,366,366,366,366,367,367,366,367,367,367,368,369,371,371,373,374,375,375,375,375,375,375,376,377,377,378,379,380,380,0,0,0,382,382,382,381,382,383,384,385,386,387,388,389,389,390,390,390,390,390,391,391,391,391,391,392,392,392,391,391,391,391,391,391,391,391,391,391,391,0,0,0,0,0,0,0,401,403,403,404,404,405,0,411,413,415,417,419,419,420,420,421,421,421,422,422,422,423,424,424,425,426,428,428,429,430,431,431,431,432,432,432,433,0,0,0,0,0,0,0,0,0,0,498,498,0,0,0,625,627,628,629,630,631,631,631,629,628,627,625,622,619,617,613,611,607,597,592,587,577,573,570,564,562,560,558,557,554,552,551,549,547,546,545,544,543,541,539,537,535,532,528,526,525,523,522,518,516,514,513,511,509,509,509,508,508,508,508,508,506,506,504,503,501,497,496,495,494,493,492,492,491,491,491,492,492,492,497,501,503,510,512,514,515,515,515,515,514,516,517,517,518,518,518,519,518,518,518,518,517,0,515,514,513,512,512,513,514,514,514,515,516,517,518
317,0,320,320,0,322,322,322,0,0,322,322,0,0,321,0,0,322,322,0,0,0,330,0,330,331,331,331,332,332,332,332,332,332,332,332,332,332,333,333,333,333,0,0,0,0,0,0,0,0,0,0,0,0,0,346,346,346,346,346,347,0,0,354,357,357,359,359,360,362,363,364,365,366,366,367,366,366,366,366,366,366,366,366,367,367,367,368,369,370,371,373,374,374,374,374,375,375,376,377,0,379,380,380,380,381,0,0,0,0,0,0,0,0,384,0,387,0,0,389,0,0,0,0,0,0,0,391,391,391,391,392,392,391,391,391,391,391,391,391,0,391,391,391,391,391,0,0,0,397,0,0,401,403,404,404,405,0,0,0,0,415,417,419,420,420,420,421,421,422,422,422,423,423,424,425,425,426,428,429,429,430,431,431,431,432,432,433,433,0,0,0,0,0,0,0,0,499,498,498,497,497,497,497,0,627,627,628,630,630,629,629,628,627,626,625,620,614,612,609,605,600,595,0,576,572,569,566,561,559,558,556,554,551,549,548,546,545,544,544,543,543,542,540,539,537,535,531,530,527,526,523,518,516,514,512,511,509,508,508,507,507,507,507,507,506,505,504,503,501,499,497,496,495,494,493,493,493,493,493,493,493,493,498,501,503,510,513,516,517,517,517,517,517,518,518,520,520,520,521,521,520,519,518,519,518,518,517,516,0,515,515,514,515,516,516,517,517,519,520
319,319,320,321,321,321,322,322,322,322,322,0,0,322,0,0,322,322,323,0,325,0,329,330,330,331,331,331,332,332,332,331,332,332,332,331,332,332,333,333,333,333,0,0,0,0,0,0,0,0,0,0,0,0,0,346,346,345,346,346,346,0,0,0,0,357,358,359,359,359,360,361,362,363,364,364,364,365,365,365,365,366,366,366,366,366,367,367,368,369,369,371,372,373,374,374,375,376,377,0,0,381,381,382,381,0,0,0,0,0,0,0,0,0,0,384,386,0,0,388,0,0,0,0,0,0,390,391,391,391,391,392,392,391,391,391,391,0,391,391,0,0,390,391,391,392,0,395,397,398,400,401,401,0,0,0,0,0,0,0,0,0,417,419,419,420,420,421,421,422,422,423,423,423,425,425,426,426,428,429,429,430,431,431,431,433,433,433,433,0,0,0,0,0,0,0,0,499,498,498,498,497,497,497,497,497,0,628,629,628,628,627,627,626,624,0,619,612,606,0,0,589,583,575,572,568,566,564,560,557,556,554,552,548,546,545,543,543,543,543,543,543,543,542,540,539,537,533,531,529,526,524,518,516,514,512,510,508,507,507,506,506,506,506,505,505,504,503,503,501,499,498,497,496,495,494,494,493,493,493,493,493,494,499,502,505,511,514,517,518,518,519,519,519,521,521,522,522,522,522,522,520,520,520,520,519,519,518,520,0,0,517,518,518,518,518,519,519,521,0
319,320,320,321,322,321,321,0,0,322,322,0,0,322,0,322,322,322,323,0,325,327,329,329,330,331,331,331,332,332,332,332,332,332,332,331,0,0,334,334,334,335,335,337,338,339,340,340,0,341,0,0,0,0,0,0,0,0,0,0,0,0,0,0,0,0,0,0,0,0,0,0,360,362,363,363,364,364,364,364,365,365,365,366,366,366,366,366,367,367,367,368,370,371,372,373,374,376,377,378,379,380,0,0,0,0,0,0,0,0,0,0,0,0,0,0,0,0,387,0,0,0,0,0,0,0,0,0,0,0,0,0,391,392,391,0,391,0,391,391,390,390,390,391,391,392,393,395,397,398,400,401,401,403,404,404,405,406,0,0,0,0,417,419,419,420,420,422,422,423,423,423,424,424,425,425,426,427,428,429,429,430,431,431,431,433,433,433,434,435,0,0,0,0,0,0,0,498,498,498,498,498,497,497,497,496,496,0,629,0,627,627,626,625,623,622,618,608,601,596,590,583,575,571,566,564,562,561,559,556,554,552,549,547,544,542,541,541,542,543,543,543,544,544,542,540,536,534,531,529,526,522,518,515,513,511,509,506,506,505,505,504,504,504,503,503,503,503,502,501,500,499,498,497,495,495,495,494,494,493,495,495,496,501,505,507,514,517,520,521,522,522,523,524,525,0,526,526,525,525,524,524,522,522,522,522,522,522,0,0,519,518,518,519,519,519,520,520,522,523
320,320,320,321,321,321,321,321,321,321,322,322,322,322,322,323,323,323,323,325,325,326,328,329,329,330,331,331,332,332,332,332,0,0,332,332,332,333,333,335,0,0,337,0,0,0,0,0,0,0,0,0,0,0,0,0,0,0,346,346,0,0,0,0,0,0,0,356,356,356,358,359,0,360,361,362,363,364,364,364,364,365,365,365,366,366,366,366,366,366,0,0,0,369,0,0,374,377,379,380,380,0,0,0,0,0,0,0,0,0,0,0,0,0,0,0,0,0,0,0,0,0,0,0,0,0,0,0,0,0,0,0,0,392,392,0,0,0,0,0,0,0,0,0,0,0,395,397,398,399,400,401,401,402,403,404,404,406,408,411,416,417,418,419,419,420,420,422,422,423,423,424,424,424,425,426,426,427,428,429,429,430,431,431,432,433,434,434,434,435,0,0,0,0,0,0,0,499,498,498,498,497,497,497,497,496,495,495,494,626,625,626,624,623,0,0,0,0,603,588,583,575,562,561,560,559,558,557,557,553,551,549,546,544,540,538,538,539,540,542,543,544,545,545,543,541,537,534,531,528,525,521,516,514,512,510,508,506,505,505,504,504,504,503,503,503,503,503,502,501,501,500,499,498,497,497,496,496,495,496,496,496,498,503,507,509,515,518,521,523,524,525,526,526,526,526,527,527,526,526,526,525,524,523,523,523,523,523,0,521,520,519,519,519,519,519,520,520,522,524
320,320,320,320,321,321,321,321,321,321,321,322,322,322,323,323,323,324,324,325,326,326,328,328,329,0,0,0,0,332,332,332,332,332,332,332,332,333,334,334,335,336,337,339,340,341,0,343,344,0,0,0,0,0,0,348,0,348,347,347,348,348,348,348,351,352,354,355,355,355,356,358,358,359,361,362,362,363,364,364,364,365,365,365,366,366,366,366,365,0,364,0,0,0,0,374,0,0,0,382,383,384,0,0,0,0,0,0,0,0,0,0,0,0,0,0,0,0,0,0,0,0,0,0,0,0,0,0,0,0,0,0,0,0,0,0,0,0,0,0,0,0,0,0,0,0,0,0,0,399,400,400,401,401,403,403,404,406,408,411,415,417,418,419,420,420,420,422,422,423,423,424,424,425,425,426,426,427,428,429,429,430,431,431,432,433,434,434,435,436,0,0,0,0,0,0,0,0,498,498,498,497,497,497,496,495,495,493,493,492,490,622,621,621,620,0,0,0,596,579,0,0,0,0,0,558,558,557,556,552,550,548,545,542,538,538,538,538,540,543,545,546,547,547,545,543,538,535,531,527,524,520,515,513,511,508,507,505,504,504,504,503,503,503,503,502,503,503,502,502,501,501,500,499,498,497,497,497,497,497,498,0,501,506,509,511,517,520,522,524,525,526,527,527,528,528,528,527,526,526,526,526,525,524,0,524,0,0,0,521,521,519,519,519,520,520,520,520,522,526
319,319,319,320,320,320,320,320,320,320,321,321,322,322,322,323,323,324,325,0,0,0,0,0,0,0,0,0,332,333,333,333,333,332,332,332,333,333,334,335,336,337,338,340,340,341,343,344,345,0,348,347,349,349,349,349,348,348,348,348,348,348,348,348,0,0,0,354,354,354,353,355,356,357,358,359,361,362,363,364,364,0,0,0,0,0,0,0,0,0,0,0,0,0,0,0,0,0,0,0,0,0,0,0,0,0,0,0,0,0,0,0,0,0,0,0,0,0,0,0,0,0,0,0,0,0,0,0,0,0,0,0,0,0,0,0,0,0,0,0,0,0,0,0,0,0,0,0,0,400,400,400,401,401,403,403,404,406,408,411,415,417,418,419,419,420,420,421,421,422,423,424,424,425,426,426,426,427,428,429,429,430,431,431,432,433,434,434,435,436,0,0,0,0,0,0,0,0,498,498,498,497,497,497,496,495,494,493,493,492,490,490,0,0,0,0,0,0,0,0,0,0,0,0,0,558,557,557,556,552,550,548,545,543,539,538,539,540,541,545,546,548,548,548,547,544,538,0,531,526,522,518,515,511,509,507,506,504,503,503,503,503,503,503,503,502,503,503,503,502,501,501,501,500,499,498,498,498,499,499,499,503,503,508,511,512,518,520,521,523,523,523,524,525,525,526,526,525,525,524,524,522,520,517,515,0,0,0,522,512,513,0,515,516,518,518,519,521,527,531
319,319,319,319,320,320,320,320,320,320,321,321,322,322,322,323,323,324,325,325,326,326,327,328,329,330,330,331,332,333,333,333,333,333,333,333,333,334,335,336,337,337,340,341,341,342,344,345,346,347,348,349,350,350,0,349,349,349,348,348,348,348,0,0,0,0,0,0,0,0,0,354,355,355,356,358,0,361,0,363,0,0,0,0,0,0,0,0,0,0,0,0,0,0,0,0,0,0,0,0,0,0,0,0,0,0,0,0,0,0,0,0,0,0,0,0,0,0,0,0,0,0,0,0,0,0,0,0,0,0,0,0,0,0,0,0,0,0,0,0,0,0,0,0,0,0,0,0,0,0,0,0,0,0,0,405,407,408,410,412,416,416,417,418,419,420,420,421,421,422,423,424,424,425,426,426,427,427,428,429,429,430,431,431,432,433,434,434,435,436,0,0,0,0,0,0,0,0,498,498,498,497,497,496,496,495,494,493,492,491,490,489,489,0,0,0,0,0,0,0,0,0,0,0,0,558,557,557,556,552,551,0,546,543,540,539,540,541,542,546,547,549,549,548,547,544,541,537,529,524,520,514,511,507,506,505,504,503,502,503,503,503,502,502,502,502,502,503,503,502,502,502,501,500,499,499,499,500,500,501,504,509,511,513,514,515,518,520,521,521,522,521,522,522,523,523,523,523,522,521,521,519,0,512,0,0,0,0,0,0,0,0,0,0,515,517,519,521,530,534
318,319,319,319,319,319,319,319,320,320,320,321,321,321,322,322,323,323,325,325,326,327,328,328,329,330,331,332,333,333,334,334,335,335,335,335,336,336,337,338,339,340,342,342,343,344,345,346,347,347,348,349,350,350,350,349,349,349,349,348,348,0,0,0,0,0,0,0,0,0,0,0,0,0,0,0,0,0,0,0,0,0,0,0,0,0,0,0,0,0,0,0,0,0,0,0,0,0,0,0,0,0,0,0,0,0,0,0,0,0,0,0,0,0,0,0,0,0,0,0,0,0,0,0,0,0,0,0,0,0,0,0,0,0,0,0,0,0,0,0,0,0,0,0,0,0,0,0,0,0,0,0,0,0,0,0,0,0,0,0,0,0,417,418,419,420,420,421,421,422,423,424,425,425,426,427,427,427,428,429,429,430,431,431,432,434,434,435,435,436,0,0,0,0,0,0,0,0,497,497,497,497,497,497,496,495,493,493,492,491,490,489,489,489,0,0,0,0,0,0,0,0,0,0,557,557,557,556,555,552,551,549,546,544,541,540,542,543,544,547,548,548,548,546,544,542,538,530,525,520,516,511,509,506,504,503,503,502,502,502,502,502,502,502,502,502,503,503,503,503,502,502,502,501,500,500,501,502,503,506,507,509,514,515,516,516,518,520,520,519,520,520,0,520,0,520,521,520,519,518,518,514,0,0,0,0,0,0,0,0,0,0,0,0,512,514,518,521,531,0
318,319,319,319,319,319,319,319,320,320,320,321,321,321,322,322,323,323,324,325,326,327,328,328,329,330,331,332,333,334,334,335,335,336,336,337,337,338,338,339,340,341,342,343,344,0,0,0,0,347,348,0,0,0,350,350,350,349,349,349,0,0,0,0,0,0,0,0,0,0,0,0,0,0,0,0,0,0,0,0,0,0,0,0,0,0,0,0,0,0,0,0,0,0,0,0,0,0,0,0,0,0,0,0,0,0,370,369,368,0,0,0,0,0,0,0,0,0,0,0,0,0,0,0,0,0,0,0,0,0,0,0,0,0,0,0,0,0,0,0,0,0,0,0,0,0,0,0,0,0,0,0,0,0,0,0,0,0,0,0,0,0,417,0,419,0,421,421,422,423,423,425,425,426,427,427,428,428,428,429,430,430,431,431,432,434,435,435,435,0,0,0,0,0,0,0,0,0,497,497,497,497,496,496,495,495,493,492,491,491,489,489,489,489,488,488,0,0,0,0,0,0,0,0,555,554,554,553,553,551,548,547,0,544,543,543,545,546,546,548,548,548,546,545,543,540,537,532,0,0,514,510,508,504,503,502,502,502,501,502,502,502,502,502,502,503,503,503,503,503,502,502,502,501,501,501,502,504,506,508,510,512,515,516,517,517,519,519,519,518,518,518,518,517,517,518,518,516,515,514,514,513,511,504,0,0,499,499,0,0,494,495,499,501,504,509,514,519,0,543
318,319,319,319,319,319,319,320,320,320,321,321,321,322,322,322,323,323,324,325,326,327,328,328,329,330,331,331,333,334,334,335,336,336,337,338,338,339,339,340,340,341,343,343,344,345,346,346,347,347,347,349,351,351,351,350,350,350,350,350,0,0,0,0,0,0,0,0,0,0,0,0,0,0,0,0,0,0,0,0,0,0,0,0,0,0,0,0,0,0,0,0,0,0,0,0,0,0,0,0,0,0,0,0,0,371,0,0,0,0,0,365,0,0,0,0,0,0,0,0,0,0,0,0,0,0,0,0,0,0,0,0,0,0,0,0,0,0,0,0,0,0,0,0,0,0,0,0,0,0,0,0,0,0,0,412,412,412,0,414,415,416,417,418,419,420,421,423,423,425,425,427,428,428,429,429,429,429,429,430,430,430,431,432,433,435,435,436,436,0,0,0,0,0,0,0,0,0,496,497,497,496,496,496,495,495,493,493,492,491,490,489,489,489,489,487,487,0,0,0,0,0,0,0,553,550,550,550,549,547,545,545,0,544,544,545,546,547,548,548,548,547,545,543,541,538,535,531,526,517,513,509,507,505,503,502,502,501,501,501,501,501,502,502,502,503,503,503,503,503,503,502,502,501,501,503,504,506,509,510,512,514,517,518,518,517,518,518,517,515,514,514,513,512,511,511,511,510,508,507,507,0,503,499,497,497,495,493,493,492,493,493,496,499,501,503,513,518,538,546
317,318,318,319,319,319,320,320,320,321,321,321,322,322,322,322,322,323,323,325,326,327,327,328,329,330,330,331,332,333,333,334,335,336,336,338,338,339,339,340,340,341,343,344,344,345,345,346,346,346,0,0,0,0,352,0,351,0,0,0,0,0,0,0,0,0,0,0,0,0,0,0,0,0,0,0,0,0,0,0,0,0,0,0,0,0,0,0,0,0,0,0,0,0,0,0,0,0,0,0,0,0,0,0,0,0,369,368,367,366,366,366,369,0,0,0,0,0,0,0,0,0,0,0,0,0,0,0,0,0,0,0,0,0,0,0,0,0,0,0,0,0,0,0,0,0,0,0,0,0,0,0,0,0,0,0,0,413,413,414,416,416,417,418,421,423,425,428,429,430,432,432,433,433,433,433,433,432,432,432,432,432,434,435,435,0,0,437,437,0,0,0,0,0,0,0,0,0,496,495,495,496,496,495,495,495,493,493,492,492,491,490,489,490,489,488,487,486,485,482,481,0,0,0,547,547,546,546,545,543,543,543,0,544,545,546,547,548,548,548,547,547,543,541,539,537,533,530,521,517,513,510,507,505,503,502,502,502,502,502,502,502,502,502,503,503,503,503,503,503,502,503,503,502,502,504,506,508,512,513,515,519,520,520,519,518,518,517,516,514,513,512,511,510,509,508,508,507,505,504,504,503,501,499,496,496,495,494,494,493,494,494,496,498,501,503,0,519,0,547
317,0,318,319,319,320,320,320,321,321,321,321,322,322,322,322,322,322,323,324,325,326,327,328,328,330,330,331,331,333,333,334,335,336,336,337,338,339,340,340,341,341,344,345,345,345,345,345,346,0,0,0,0,351,0,0,0,0,0,0,0,0,0,0,0,0,0,0,0,0,0,0,0,0,0,0,0,0,0,0,0,0,0,0,0,0,0,0,0,0,0,0,0,0,0,0,0,0,0,0,0,0,0,0,0,0,0,367,366,366,367,367,0,0,0,0,0,0,0,0,0,0,0,0,0,0,0,0,0,0,0,0,0,0,0,0,0,0,0,0,0,0,0,0,0,0,0,0,0,0,0,0,0,0,0,0,0,0,0,0,417,417,417,421,423,425,429,430,432,433,434,435,435,435,436,436,435,435,435,435,435,435,436,0,437,437,438,438,438,438,439,0,0,0,0,0,0,0,0,494,495,495,495,495,495,495,494,493,493,493,491,491,491,491,490,489,487,486,485,482,0,0,0,0,524,543,542,539,538,538,538,540,541,543,544,547,547,548,547,547,546,545,541,539,537,535,531,528,520,516,513,510,508,506,503,502,502,502,502,502,502,502,502,502,502,503,503,503,503,503,502,503,503,504,505,510,512,514,518,519,520,521,521,521,520,518,517,516,514,512,511,511,510,509,507,507,506,505,503,502,502,501,500,499,497,497,497,495,495,494,495,495,496,498,500,502,0,0,542,546
316,318,319,319,320,320,321,321,321,321,322,322,322,322,322,322,322,322,323,324,325,326,327,327,328,330,330,331,331,333,333,333,335,335,336,338,338,339,340,340,341,342,344,345,345,345,345,345,345,0,0,0,0,0,0,0,0,0,0,0,0,0,0,0,0,0,0,0,0,0,0,0,0,0,0,0,0,0,0,0,0,0,0,0,0,0,0,352,351,0,0,0,351,351,0,0,0,0,0,0,0,0,0,0,364,0,0,366,365,366,369,0,0,376,378,379,0,0,0,0,0,0,0,0,0,0,0,0,0,0,0,0,0,0,0,0,0,0,0,0,0,0,0,0,0,0,0,0,0,0,0,0,0,0,0,0,0,0,0,0,0,422,423,426,427,428,431,433,434,436,437,438,438,439,439,440,440,439,439,439,438,438,438,0,438,438,438,438,439,439,439,0,0,0,0,0,0,0,0,486,488,489,490,495,495,495,494,493,493,493,492,491,491,490,490,489,487,486,485,482,482,481,492,499,0,513,0,536,536,535,536,536,539,541,543,546,547,547,547,546,546,544,540,538,537,534,531,528,520,516,513,511,508,506,503,502,502,501,501,502,502,502,502,502,502,502,502,502,502,502,502,503,503,505,507,514,516,518,521,522,523,524,522,522,521,518,518,516,515,512,511,511,510,508,507,506,505,504,503,501,502,501,501,499,499,499,499,498,497,497,497,497,497,499,500,501,510,0,536,541
316,318,319,319,321,321,321,321,322,322,322,322,322,322,322,322,322,322,323,324,325,325,326,327,328,328,330,331,331,332,333,333,335,335,336,337,338,339,340,341,0,0,0,0,345,345,345,345,345,344,343,0,0,0,0,0,0,0,0,0,0,0,0,0,0,0,0,0,0,0,0,0,0,0,0,0,0,0,0,0,0,0,0,0,0,0,352,0,0,0,0,0,351,351,0,0,0,0,0,0,0,0,0,362,363,364,365,366,0,0,371,374,375,377,379,379,379,379,0,0,0,0,0,0,0,0,0,0,0,0,0,0,0,0,0,0,0,0,0,0,0,0,0,0,0,0,0,0,0,0,0,0,0,0,0,0,0,0,0,0,0,427,430,430,431,432,434,435,436,438,439,440,440,442,443,444,445,444,443,443,441,0,440,439,438,439,438,439,439,439,439,439,440,0,0,0,0,0,0,0,477,0,0,485,495,495,494,494,494,494,493,493,492,492,491,489,488,486,485,486,487,0,498,501,0,526,529,532,533,532,534,534,538,539,541,545,546,545,546,545,544,543,540,538,536,533,531,527,520,517,514,511,509,507,503,502,502,501,501,501,502,502,502,502,502,502,502,502,502,502,502,503,504,506,512,515,518,522,524,524,525,524,523,522,521,518,518,516,514,512,511,511,510,508,506,506,504,503,503,502,502,502,502,501,501,501,501,500,499,499,499,501,501,502,503,504,514,0,532,538
316,0,0,320,320,321,321,321,322,322,322,322,322,322,322,322,322,323,323,324,324,325,326,327,328,328,330,331,331,332,332,332,334,334,335,336,338,338,339,0,0,0,0,0,345,0,0,0,344,0,0,0,0,0,0,0,0,0,0,0,0,0,0,0,0,0,356,356,0,0,0,0,0,0,0,0,0,0,0,0,0,0,353,353,352,0,0,352,352,0,0,352,351,351,0,0,0,0,0,0,0,0,0,0,364,365,0,367,0,0,0,0,377,379,380,380,379,378,0,0,0,0,0,0,0,0,0,0,0,0,0,0,0,0,0,0,0,0,0,0,0,0,0,0,0,0,0,0,0,0,0,0,0,0,0,0,0,0,0,0,0,437,433,437,0,438,439,439,440,441,442,443,445,446,447,448,449,448,448,447,0,442,441,0,440,440,439,439,439,440,440,440,440,0,0,0,0,444,0,0,0,462,0,0,494,495,494,494,495,495,494,494,493,493,492,491,491,491,491,494,496,0,501,0,0,523,526,529,530,531,531,533,537,539,540,543,544,545,544,544,544,543,541,538,536,533,531,528,521,517,514,512,509,507,503,503,501,501,500,500,500,500,499,499,500,500,500,500,500,501,501,502,504,506,514,518,521,525,525,526,526,526,524,522,521,518,517,515,514,513,511,511,509,508,506,506,504,503,502,502,503,503,504,504,504,505,504,505,504,504,504,504,504,0,0,507,515,518,529,533
0,0,0,319,320,320,320,321,322,322,322,322,322,322,322,322,322,322,323,323,324,324,325,327,327,328,0,0,331,332,332,332,332,334,335,335,337,338,0,0,0,0,0,0,0,344,344,344,344,344,344,0,0,0,0,0,0,0,0,0,0,0,0,0,0,357,356,356,0,0,0,0,0,0,0,0,0,0,0,0,0,0,352,352,352,352,0,352,353,352,352,352,352,352,0,0,0,0,0,0,0,0,0,0,365,366,367,0,0,377,379,0,380,380,380,380,380,379,378,377,0,0,0,0,0,0,0,0,0,0,0,0,0,0,0,0,0,0,0,0,0,0,0,0,0,0,0,0,0,0,0,0,0,0,0,0,0,0,0,0,440,440,440,440,440,440,441,441,442,443,443,444,445,446,447,448,449,448,448,445,0,442,441,440,440,440,439,439,440,440,440,440,440,441,441,442,442,444,0,451,454,456,0,0,483,494,495,495,495,495,495,495,494,493,494,493,494,495,497,501,0,506,517,520,519,522,525,527,529,529,531,532,536,538,539,542,543,543,543,543,543,542,541,538,537,534,532,529,521,518,515,512,510,508,503,502,501,501,500,500,499,499,499,499,499,499,499,499,500,500,501,503,504,0,0,522,524,526,527,527,526,525,523,521,520,518,516,515,514,512,511,510,509,508,506,505,504,503,502,502,503,505,505,506,506,507,507,507,507,507,507,507,507,0,508,513,516,518,526,529
316,0,0,0,319,320,320,320,321,321,322,322,322,322,323,323,322,322,323,323,0,0,324,326,327,0,0,0,331,332,331,332,332,0,0,0,0,0,0,0,0,0,0,0,0,0,0,0,0,0,0,0,0,0,0,0,0,0,0,0,0,0,0,0,0,357,356,356,355,0,0,0,0,0,0,0,0,0,0,0,350,350,351,352,352,352,353,353,353,353,353,353,352,352,352,0,0,0,0,0,0,0,0,0,0,0,368,373,0,380,381,382,382,382,382,382,381,379,0,377,376,0,0,0,0,0,0,0,0,0,0,0,0,0,0,0,0,0,0,0,0,0,0,0,0,0,0,0,0,0,0,0,0,0,0,0,0,0,0,0,444,443,443,443,442,442,442,442,443,443,444,444,445,446,447,447,448,447,447,445,443,0,441,440,440,440,439,440,440,440,440,440,440,441,442,442,442,444,444,445,446,447,448,450,0,0,482,495,0,0,496,496,495,495,495,0,498,503,508,0,0,514,522,523,525,525,527,528,529,530,531,532,537,538,539,541,542,542,542,543,543,542,541,539,538,537,534,531,523,520,516,513,510,508,503,502,501,501,500,499,499,499,498,499,499,499,499,499,500,0,0,0,0,0,0,0,524,525,525,526,524,523,521,520,519,516,515,514,513,512,511,510,509,508,506,505,503,503,502,502,504,506,506,508,509,510,510,511,510,511,511,511,514,511,511,515,518,519,523,0
317,318,318,318,319,319,320,320,321,321,321,322,322,322,323,323,322,323,323,0,323,0,324,326,328,0,0,330,331,332,0,0,0,0,0,0,0,0,0,0,0,0,0,0,344,344,345,344,344,344,345,345,0,0,0,0,0,0,0,0,0,0,0,0,358,357,356,355,355,0,0,0,0,0,0,0,0,0,0,349,349,349,350,351,352,353,353,354,354,354,353,353,353,353,352,0,0,0,0,0,0,0,0,0,0,0,0,370,376,379,382,382,383,383,383,383,382,381,380,379,377,376,0,0,0,0,0,0,0,0,0,0,0,0,0,0,0,0,0,0,0,0,0,0,0,0,0,0,0,0,0,0,0,0,0,0,0,0,0,446,445,445,445,445,444,444,443,443,443,443,444,444,444,445,445,446,445,445,446,444,442,441,440,440,439,439,439,440,440,440,440,440,441,442,442,442,443,444,445,445,445,445,446,447,0,0,0,0,0,0,0,0,0,501,0,0,515,0,519,520,522,523,525,526,526,525,526,526,528,528,529,531,534,536,537,538,540,540,541,541,541,541,540,539,538,537,534,531,527,520,516,513,510,508,503,503,501,501,0,499,499,498,497,498,498,498,499,499,500,501,501,0,0,0,0,0,521,522,523,522,522,520,515,514,513,511,510,509,509,509,508,508,508,507,505,504,503,503,503,503,505,507,508,511,512,513,514,514,514,514,514,514,515,515,515,516,518,518,519,0
317,318,318,318,319,319,319,320,320,321,321,321,322,323,323,323,323,323,323,323,324,0,0,0,0,0,0,0,331,332,0,0,0,0,0,0,0,0,0,0,0,0,0,0,0,345,345,345,345,345,345,345,345,0,0,0,0,0,0,0,0,0,0,0,358,357,356,355,355,0,0,0,0,0,0,0,0,0,0,348,349,349,350,350,352,353,354,354,354,354,354,353,353,353,352,0,0,0,0,0,0,0,0,0,0,0,0,0,0,379,382,383,383,384,384,384,384,382,0,381,379,378,0,0,0,0,0,0,0,0,0,0,0,0,0,0,0,0,0,0,0,0,0,0,0,0,0,0,0,0,0,0,0,0,0,0,0,0,0,446,446,446,446,445,444,444,444,444,443,443,443,444,443,444,444,444,444,443,442,442,440,440,439,439,439,439,439,440,440,441,441,441,442,442,443,443,443,444,445,445,445,445,446,446,0,0,0,0,0,495,0,0,0,0,0,0,0,523,0,525,525,526,526,526,524,523,523,523,525,524,0,528,530,531,532,535,537,537,538,538,539,538,538,538,536,535,533,530,526,519,515,513,508,507,503,503,502,501,500,499,499,498,497,497,497,497,497,498,499,499,500,0,0,0,0,513,0,515,0,515,514,512,511,509,507,506,505,505,505,505,506,506,507,506,506,505,503,502,503,503,505,507,511,513,514,515,516,517,516,517,516,516,515,514,514,516,516,516,517,517
317,317,318,318,318,319,319,319,320,320,320,321,322,323,323,323,323,323,323,323,323,0,0,0,0,0,0,0,0,0,0,0,0,0,0,0,0,0,0,0,0,0,0,0,0,345,345,345,345,345,346,346,346,0,346,0,0,0,0,0,0,0,0,0,0,357,0,355,355,354,353,0,0,0,0,0,0,0,0,348,348,0,0,350,352,353,354,354,354,354,354,354,353,353,0,0,0,0,0,0,0,0,0,0,0,0,0,0,0,379,382,383,384,385,385,385,384,0,0,0,0,0,0,0,0,0,0,0,0,0,0,0,0,0,0,0,0,0,0,0,0,0,0,0,0,0,0,0,0,0,0,0,0,0,0,0,0,0,0,444,444,445,445,445,444,444,444,444,443,443,443,442,441,441,441,441,441,440,440,440,439,439,439,439,439,440,440,440,441,441,441,442,442,443,443,443,444,445,444,445,445,445,445,445,445,0,0,0,0,0,0,0,0,0,519,0,0,527,527,527,525,525,521,519,516,515,514,512,512,512,512,512,0,524,0,0,0,524,532,526,527,528,527,527,527,526,526,527,520,515,511,509,506,506,502,502,501,501,499,499,498,498,497,497,497,497,497,497,498,498,499,499,0,502,503,506,508,508,509,509,508,508,505,503,502,501,501,501,501,502,503,504,505,505,505,504,503,502,502,502,504,506,508,512,514,515,516,516,516,516,516,516,515,515,514,515,515,514,514,514
317,317,317,318,318,319,319,319,320,320,320,321,322,323,0,324,324,324,323,323,0,0,0,0,0,0,0,0,0,0,0,0,0,0,0,0,0,0,0,0,0,0,0,0,0,0,345,345,345,345,345,345,346,345,345,0,0,0,0,0,0,0,0,0,0,0,0,355,354,0,0,0,350,0,0,0,0,0,0,347,347,348,0,0,0,0,354,355,355,355,355,0,0,0,0,0,0,0,0,0,0,0,0,0,0,0,0,0,0,0,0,387,0,0,389,389,389,388,387,0,0,0,0,0,0,0,0,0,0,0,0,0,0,0,0,0,0,0,0,0,0,0,0,0,0,0,0,0,0,0,0,428,0,428,0,0,0,440,441,442,443,445,445,445,444,444,444,443,442,442,441,441,440,439,439,439,438,438,438,438,438,439,439,439,439,440,440,441,441,442,442,442,443,443,444,444,446,446,447,447,448,448,449,449,449,0,0,0,0,0,0,0,0,512,521,524,526,526,525,525,522,521,519,517,515,511,509,508,508,506,506,506,507,508,0,512,513,515,517,518,520,521,519,519,520,519,519,517,0,510,507,506,504,503,501,501,500,500,499,499,498,497,498,497,497,497,497,496,497,497,497,497,499,499,500,503,504,505,505,505,504,504,502,499,498,497,497,497,498,499,500,501,503,504,504,503,502,501,501,501,503,504,506,511,512,514,515,516,515,516,516,516,516,515,514,514,514,513,513,512
316,317,317,317,318,319,319,319,319,320,320,320,0,0,0,0,323,0,0,0,0,0,0,0,0,0,0,0,0,0,0,0,0,0,0,0,0,0,0,0,0,342,342,342,342,343,344,344,344,344,345,345,345,345,345,0,0,0,0,0,0,0,0,0,0,0,0,354,0,353,0,0,0,0,0,0,0,0,0,0,0,0,0,0,0,0,0,0,356,0,0,0,0,0,0,0,0,0,0,0,0,0,0,0,0,0,0,0,0,0,0,0,0,0,0,392,391,391,390,388,383,0,0,0,0,0,0,0,0,0,0,0,0,0,0,0,0,0,0,0,0,0,0,0,0,0,0,0,0,0,0,0,428,429,429,0,0,436,440,441,443,444,445,444,443,443,442,442,440,439,439,438,437,435,435,435,435,435,436,436,437,439,439,440,440,441,441,442,442,442,443,443,444,445,445,445,449,450,450,452,0,0,0,0,0,0,0,0,0,0,0,0,0,504,513,518,520,522,523,522,519,518,515,513,511,507,505,504,503,503,501,500,501,501,503,503,505,507,510,510,512,513,513,513,513,513,513,511,509,508,504,503,502,502,501,500,500,499,499,499,498,498,498,497,497,496,496,496,496,495,495,496,497,497,498,499,501,501,501,501,500,500,499,494,493,492,492,493,495,497,498,499,502,503,0,0,0,0,0,0,0,0,0,0,0,0,514,515,515,515,515,515,515,514,513,513,513,512,511,510
316,0,317,317,318,319,318,319,319,319,0,0,0,0,0,0,0,0,0,0,0,0,0,0,0,0,0,0,0,0,0,0,0,0,0,0,0,0,0,0,0,0,342,342,342,343,343,344,344,344,344,345,345,345,345,345,0,0,0,0,0,0,0,0,0,0,0,0,0,0,0,0,0,0,0,0,0,0,0,0,0,0,0,0,0,0,0,0,0,0,0,0,0,0,0,0,0,0,0,0,0,0,0,0,0,0,0,0,0,0,0,0,392,393,393,393,393,392,391,390,386,0,0,0,0,0,0,0,0,0,0,0,0,0,0,0,0,0,0,0,0,0,0,0,0,0,425,425,426,427,427,428,428,428,429,431,432,434,438,440,442,444,445,445,443,443,442,441,440,439,438,437,436,435,435,435,435,435,436,436,437,440,441,442,442,443,444,444,444,444,445,444,445,445,446,446,450,451,456,457,0,0,0,0,0,0,0,0,481,481,0,0,0,0,500,511,514,0,0,0,515,512,509,507,505,503,501,500,499,499,497,496,496,495,495,497,497,500,501,504,505,507,0,0,507,507,506,505,504,503,501,500,497,497,497,498,498,498,499,498,498,498,497,496,495,495,494,493,493,492,493,493,494,495,495,496,498,498,498,497,496,495,495,492,491,490,490,491,494,495,497,498,501,502,0,0,0,0,0,0,0,0,0,0,0,0,514,515,515,515,515,515,514,514,512,511,511,510,509,506
315,315,316,317,318,319,319,319,319,319,0,0,0,0,0,0,0,0,0,0,0,0,0,0,0,0,0,0,0,0,0,0,0,0,0,0,0,0,0,0,0,0,341,342,342,342,343,343,343,343,344,344,345,345,345,345,0,0,0,0,0,0,0,0,0,0,0,0,0,0,0,0,0,0,0,0,0,0,0,0,0,0,0,0,0,0,0,0,0,0,0,0,0,0,0,0,0,0,0,0,0,0,0,0,0,0,0,390,391,392,393,394,394,395,395,394,394,393,393,389,0,0,0,0,0,0,0,0,0,0,0,0,0,0,405,405,405,405,0,0,0,0,0,0,424,425,425,425,426,427,427,428,428,428,429,430,431,432,0,0,0,0,0,0,0,0,441,440,0,437,437,436,435,435,434,434,434,435,436,437,438,441,442,443,444,445,445,445,445,445,445,445,445,446,446,446,451,453,458,460,464,467,0,0,477,478,0,0,480,481,0,485,490,0,0,0,0,0,511,511,509,506,499,497,496,495,495,494,494,494,493,493,0,492,492,492,493,493,495,495,496,497,497,497,497,497,497,496,495,495,495,495,495,496,496,497,497,497,497,497,497,497,496,495,494,493,492,491,490,490,491,491,493,493,493,494,496,496,496,494,493,493,492,491,489,489,489,490,491,493,495,496,499,500,501,502,502,502,502,502,0,501,500,501,506,508,510,512,512,0,0,0,0,0,512,0,510,508,507,504
314,314,0,0,0,0,319,319,319,0,0,0,0,0,0,0,0,0,0,0,0,0,0,0,0,0,0,0,0,0,0,0,0,0,0,0,0,0,0,0,0,341,341,341,341,342,343,343,343,343,344,344,344,345,345,0,0,0,0,0,0,0,0,0,0,0,0,0,0,0,0,0,0,0,0,0,0,0,0,0,0,0,0,0,0,0,0,0,0,0,0,0,0,0,0,0,0,0,0,0,0,0,0,0,0,0,0,392,393,393,394,395,396,397,397,396,395,0,0,392,0,0,0,0,0,0,0,0,0,0,0,0,0,405,0,405,406,405,0,0,409,0,0,0,0,0,425,425,426,426,427,428,428,428,429,430,430,431,0,0,0,0,0,0,0,0,439,0,438,436,435,435,435,434,434,434,434,435,437,438,440,443,444,445,446,446,446,446,446,446,446,446,446,445,446,446,451,454,461,463,468,475,479,479,479,479,479,480,480,481,481,482,485,487,487,489,500,0,0,497,495,495,495,493,492,492,492,491,491,0,0,0,0,488,488,489,490,491,491,493,493,493,494,493,494,494,494,493,493,493,493,493,493,494,494,494,495,495,495,495,495,495,495,493,492,491,490,489,488,488,488,489,489,490,491,491,493,493,493,492,490,490,489,488,487,0,487,489,490,492,493,494,497,498,499,500,501,501,502,502,0,0,0,0,0,0,0,0,0,0,0,0,0,0,0,0,0,0,0,0
0,0,0,0,0,0,0,0,0,0,0,0,0,0,0,0,0,0,0,0,0,0,0,0,0,0,0,0,0,0,0,0,0,0,0,0,0,0,0,0,340,341,341,0,0,0,341,340,340,340,343,0,344,345,345,0,0,0,0,0,0,0,0,0,0,0,0,0,0,0,0,0,0,0,0,0,0,0,0,0,0,0,0,0,0,0,0,0,0,0,0,0,0,0,0,0,0,0,0,0,0,0,0,0,0,0,0,392,393,393,394,395,397,397,397,397,396,0,0,393,0,0,0,0,0,0,0,0,0,0,0,405,405,405,406,0,0,407,0,0,413,0,0,0,0,0,425,425,425,426,426,427,427,427,427,427,427,427,0,0,0,0,0,0,0,0,0,0,434,435,434,433,433,433,433,433,434,435,439,440,442,445,446,447,448,448,448,447,447,447,447,446,445,445,445,445,450,453,460,463,469,478,478,479,479,479,480,480,480,481,481,482,482,484,484,485,0,488,0,490,490,490,490,490,489,489,489,489,488,0,0,0,0,0,0,485,487,488,489,490,490,491,491,491,492,491,492,492,491,491,491,491,491,492,492,492,492,493,493,493,493,493,492,491,489,489,488,487,486,486,486,487,487,488,489,490,490,491,490,489,487,487,486,484,483,485,486,488,489,492,493,493,493,494,494,497,498,499,500,500,500,0,0,0,0,0,0,0,0,0,0,0,0,0,0,0,0,0,0,0
0,0,0,0,0,0,0,0,0,0,0,0,0,0,0,0,0,0,0,0,0,0,0,0,0,328,328,0,0,0,0,0,0,0,0,0,0,0,0,340,340,340,0,0,339,339,339,338,338,338,338,0,341,0,0,0,0,0,0,0,0,0,0,0,0,0,0,0,0,0,0,0,0,0,0,0,0,0,0,0,0,0,0,0,0,0,0,0,0,0,0,0,0,0,0,0,0,0,0,0,0,0,0,0,0,0,0,392,393,394,395,395,397,398,398,398,398,0,0,0,0,0,0,0,0,0,0,0,0,405,405,405,405,405,406,407,407,408,410,411,412,417,0,421,423,423,423,423,423,423,423,422,422,422,422,420,420,420,419,418,0,0,0,0,0,0,0,0,0,0,0,433,433,433,433,433,435,0,0,0,450,451,451,451,452,452,451,450,449,448,448,446,445,445,444,444,449,451,458,460,466,472,477,478,479,479,480,480,481,481,481,482,482,482,482,483,484,0,487,489,489,489,489,489,489,488,488,487,487,0,0,0,0,0,0,482,484,486,487,488,489,490,490,490,491,491,491,491,491,491,491,491,491,491,491,491,490,490,490,490,489,489,489,488,486,485,484,483,482,481,481,482,482,483,483,484,485,485,484,484,482,482,482,482,481,482,485,487,489,491,491,491,490,491,490,490,491,491,0,0,491,491,0,0,493,0,496,495,495,0,0,0,0,0,0,0,0,0,0,0
0,0,0,0,0,0,0,0,0,0,0,0,0,0,0,0,0,0,0,0,0,0,0,0,0,327,329,329,0,0,0,0,332,0,0,0,340,0,0,0,0,0,0,0,0,0,338,0,0,0,0,0,0,0,0,0,0,0,0,0,0,0,0,0,0,0,0,0,0,0,360,359,358,0,0,0,0,0,364,364,364,0,0,0,0,0,0,0,0,0,0,0,0,0,0,0,0,0,0,0,0,0,0,0,0,0,392,393,394,395,395,396,398,398,400,0,400,399,0,0,0,0,0,0,0,0,400,403,404,405,406,407,407,407,408,408,409,410,411,412,0,417,418,420,423,423,422,422,421,421,420,420,420,419,419,418,417,417,416,416,0,0,0,0,0,0,0,0,0,0,433,433,434,434,434,434,0,0,0,0,451,452,453,453,454,453,452,451,450,449,447,446,445,444,444,444,446,448,0,0,0,473,0,477,478,480,480,481,481,481,481,481,482,482,482,483,484,486,487,487,488,489,489,488,487,487,486,485,482,481,479,478,475,473,0,479,479,481,482,484,485,487,488,488,489,490,490,490,491,491,491,491,491,491,491,490,490,489,489,488,488,487,486,486,484,483,482,481,480,479,479,479,479,479,480,481,481,0,481,481,481,480,480,480,479,480,482,485,487,488,488,487,486,486,486,486,486,486,485,486,485,483,0,0,0,491,491,491,492,0,490,489,488,0,0,0,0,0,0,0
0,0,0,0,0,0,0,0,0,0,0,0,0,0,0,0,0,0,0,0,0,0,0,0,327,328,329,330,330,331,332,332,333,333,333,0,338,339,339,0,0,0,0,0,0,0,337,337,0,0,0,0,0,0,0,0,0,0,0,0,0,0,0,0,0,0,0,364,363,362,361,361,360,359,0,0,0,0,0,364,365,365,365,366,0,0,0,0,0,0,0,0,0,0,0,0,0,0,0,0,0,0,0,0,0,0,0,0,0,395,0,0,0,0,0,0,0,0,0,0,0,0,0,0,0,0,0,0,405,406,407,407,408,408,409,409,410,411,412,413,413,417,0,420,421,421,420,419,419,418,418,417,416,416,416,416,415,414,414,414,413,0,0,415,0,0,0,0,0,432,433,433,434,434,434,434,436,0,0,447,451,452,454,454,454,454,452,451,449,448,447,445,443,443,442,442,442,443,444,446,0,0,468,473,477,480,480,481,481,481,481,481,481,482,482,482,483,486,486,487,488,488,488,487,487,487,486,485,482,480,478,476,474,471,471,0,0,477,479,481,482,485,486,487,488,489,489,490,491,491,491,491,491,490,490,489,489,488,487,487,486,485,484,484,482,481,480,479,478,477,477,477,477,477,478,478,0,0,0,479,478,478,478,478,478,478,480,0,0,0,0,0,0,482,482,482,481,481,481,480,480,479,479,481,0,488,489,489,490,489,488,488,487,487,486,0,0,0,0,0
0,0,0,0,0,0,0,0,0,0,0,0,0,0,0,0,0,0,0,0,0,0,0,327,328,329,330,330,331,331,332,333,333,0,334,0,0,338,338,338,339,339,339,339,0,338,338,338,338,337,337,0,0,0,0,0,0,0,0,0,0,0,0,0,0,0,0,0,365,365,0,0,0,0,0,0,365,365,365,365,366,366,366,0,0,0,0,0,0,0,0,0,0,0,0,0,0,0,0,0,0,0,0,0,0,0,0,0,395,397,398,0,0,0,0,0,0,0,0,0,397,397,396,397,398,399,402,404,405,407,408,408,409,409,410,410,410,411,412,413,414,416,417,418,419,418,418,417,416,416,415,415,414,414,414,413,413,413,413,412,412,413,0,0,0,0,425,427,428,429,430,432,432,432,432,432,435,0,0,441,444,448,450,451,452,452,451,449,448,447,446,444,442,442,441,441,441,441,442,443,444,451,0,0,479,480,480,481,481,482,482,482,482,483,482,483,484,486,486,487,487,488,488,487,487,487,486,484,481,479,478,475,473,470,469,0,0,473,475,477,479,482,485,486,487,488,489,489,490,491,491,491,490,490,489,489,487,487,486,485,484,483,482,482,480,479,478,477,476,475,475,475,475,475,475,476,0,0,477,477,476,476,476,476,474,474,475,0,0,0,0,0,476,476,476,476,476,476,475,475,474,473,473,0,478,486,0,486,487,487,487,487,487,486,485,484,0,0,0,0
0,0,0,0,0,0,0,0,0,0,0,0,0,0,0,0,0,0,0,0,324,327,328,328,329,330,331,331,331,332,332,333,333,0,334,0,0,0,0,338,340,341,0,0,341,0,341,340,340,340,340,0,0,0,0,0,0,0,0,0,0,0,0,0,0,0,0,365,366,366,0,0,0,365,365,0,365,365,366,365,366,366,367,367,0,0,0,0,0,0,0,0,0,0,0,0,0,0,0,0,0,0,0,0,0,0,0,397,0,399,0,0,0,0,0,0,400,400,399,398,398,398,398,398,399,400,403,0,406,407,408,408,409,409,410,410,410,410,411,411,412,413,413,413,413,412,412,412,411,410,410,410,410,410,410,410,410,411,411,411,411,413,414,415,418,0,424,426,428,429,430,431,431,432,432,432,433,435,438,0,0,446,448,449,450,450,450,448,447,446,445,444,442,442,441,441,440,440,440,441,441,446,451,0,473,479,479,480,480,481,481,481,481,482,482,482,484,486,486,487,488,488,488,487,487,486,485,484,482,479,476,474,472,469,467,466,0,468,471,472,475,476,482,484,485,487,489,489,490,490,491,490,490,488,487,486,484,482,481,480,480,478,478,478,476,475,474,473,472,472,471,471,471,471,471,471,471,471,472,472,472,472,472,472,471,471,470,472,0,0,474,475,475,474,474,473,474,473,473,472,472,471,471,472,475,477,0,484,486,486,486,486,486,485,485,484,481,0,0,0
0,0,0,0,0,0,0,318,318,319,0,0,0,0,0,0,0,323,0,0,0,328,329,330,330,331,332,332,332,333,333,333,333,334,335,335,337,338,0,0,0,341,342,0,0,0,342,341,0,341,341,0,0,0,0,0,0,0,0,0,0,0,0,0,0,0,0,0,366,366,366,366,366,366,366,366,366,366,366,366,366,366,367,367,367,0,0,0,0,0,0,0,0,0,0,0,0,0,0,0,0,0,0,0,0,0,398,0,0,0,0,0,401,401,401,401,400,400,399,399,398,398,398,399,400,401,402,405,406,407,408,408,408,408,409,409,409,409,410,410,410,410,410,410,410,409,409,409,408,408,408,408,408,408,408,409,409,410,410,410,411,413,414,415,418,420,422,426,427,428,429,431,431,432,432,432,433,434,437,438,440,0,446,447,0,449,450,448,447,446,445,443,442,441,441,441,440,440,440,440,441,444,0,0,0,478,479,479,479,479,479,479,480,481,481,482,482,485,486,486,487,487,486,487,486,485,484,482,478,476,473,471,469,467,464,463,461,461,462,463,465,468,474,477,479,485,487,488,489,489,490,489,488,487,486,484,482,481,479,478,478,476,475,475,475,473,472,471,471,470,470,470,469,469,469,469,469,469,469,470,470,469,469,469,468,468,467,469,470,0,472,473,473,473,472,472,471,471,470,469,468,468,468,469,471,473,476,481,482,484,484,484,484,482,482,480,477,0,0,0
0,0,0,0,319,319,319,319,319,319,320,321,322,0,0,0,323,324,324,0,0,328,329,330,330,331,332,332,333,333,333,333,334,334,335,335,337,337,0,0,0,341,342,0,0,343,342,342,0,0,0,0,0,0,0,0,0,0,0,0,0,0,0,0,354,0,0,0,365,366,366,367,367,367,368,367,367,0,366,366,366,367,367,367,368,368,368,368,367,367,367,367,0,0,0,0,0,0,0,0,0,0,0,0,396,396,397,397,0,0,400,401,401,401,401,401,401,400,400,399,399,399,399,400,401,402,403,405,406,407,407,407,408,408,408,408,408,408,408,408,408,408,408,408,408,407,407,407,407,407,407,407,407,407,407,408,408,408,410,410,411,413,414,415,418,421,423,426,427,428,429,431,431,431,432,432,433,434,435,436,438,442,444,0,0,448,448,448,446,446,444,443,442,442,442,441,441,441,440,441,441,442,0,0,0,467,471,472,472,473,473,474,475,475,476,477,478,481,481,481,482,483,484,484,483,482,481,480,478,473,472,469,467,466,463,461,460,459,459,460,461,463,466,472,475,482,485,487,487,489,489,488,486,485,484,482,480,478,477,476,475,474,473,473,472,471,470,470,470,469,469,469,469,468,468,468,467,467,467,468,468,467,467,467,466,466,466,468,470,471,472,473,473,472,471,471,470,469,467,467,466,465,465,465,467,470,472,478,480,481,481,481,481,480,479,477,475,0,0,0
0,0,0,320,320,320,319,319,319,320,320,321,322,323,323,323,324,324,324,0,326,329,329,330,331,331,333,333,333,334,334,334,334,0,335,335,337,337,337,337,0,0,342,343,344,345,344,343,0,0,0,0,0,0,0,0,0,0,0,0,0,0,0,353,354,356,358,0,0,0,366,367,367,0,0,0,0,0,367,367,368,368,368,368,368,369,368,368,367,367,367,367,367,0,0,0,0,0,0,0,0,0,394,0,395,395,395,0,0,0,400,401,401,401,401,401,400,400,400,400,400,400,400,401,401,402,403,405,405,406,406,407,407,407,407,407,407,406,406,406,406,406,406,406,406,405,405,405,405,405,405,406,406,406,407,407,408,408,409,410,410,413,415,417,421,423,425,428,428,428,429,431,431,432,432,433,433,434,434,433,435,435,437,440,445,446,445,446,445,445,444,444,443,443,443,442,442,441,441,441,440,440,442,0,0,0,465,470,470,471,471,471,472,472,473,474,474,475,0,0,0,478,479,480,479,479,478,477,475,471,469,468,466,465,461,460,458,457,457,457,458,459,460,467,470,473,482,486,486,486,487,486,484,483,481,480,478,476,475,473,473,471,470,470,470,469,469,469,469,468,468,468,468,468,467,466,466,466,466,466,466,465,465,465,463,463,463,467,469,470,471,472,472,471,469,468,467,466,466,464,464,463,0,462,463,465,466,471,473,475,475,476,479,475,473,0,0,0,0,461
0,0,321,320,320,320,320,320,320,321,321,322,322,323,323,323,324,324,325,326,327,328,330,331,331,333,333,334,334,334,334,334,334,335,335,335,0,337,337,0,0,0,0,0,0,0,0,0,0,0,0,0,0,0,0,0,0,0,0,0,0,0,0,0,0,0,0,361,0,364,366,367,368,369,369,369,369,368,368,368,368,368,369,369,368,368,368,368,368,368,368,367,368,0,0,0,0,0,0,0,0,0,0,0,0,0,0,396,0,0,0,400,400,400,401,401,401,401,400,400,400,400,400,401,402,403,404,404,404,405,404,404,404,403,403,403,403,403,403,403,403,403,403,403,403,403,404,404,404,404,404,405,405,405,407,407,407,408,409,410,413,419,425,426,428,429,430,431,431,431,431,432,433,434,435,435,435,0,0,0,0,0,435,438,440,442,443,444,444,444,444,444,443,443,443,443,442,442,441,441,440,0,0,0,0,0,0,461,463,465,466,468,469,469,470,470,470,470,0,0,0,474,475,476,477,476,476,0,0,469,468,466,465,463,460,459,457,456,455,454,454,454,455,457,463,467,480,482,482,483,483,483,481,478,476,474,472,471,469,468,467,466,466,466,466,466,466,466,467,467,467,467,467,466,465,465,464,463,463,462,461,461,461,461,461,461,463,465,468,470,471,472,472,471,468,467,466,465,464,463,462,461,461,460,462,463,465,466,470,471,472,473,473,472,471,468,467,466,463,461
0,0,321,321,321,321,321,321,321,322,322,322,323,323,324,324,324,325,325,326,327,328,331,331,332,333,333,334,334,335,335,335,335,335,335,336,337,338,0,0,0,0,0,0,0,0,0,0,0,0,0,0,0,0,0,0,0,0,0,0,0,0,0,0,0,0,359,361,362,0,0,367,368,369,370,369,369,369,369,369,369,369,369,369,369,369,368,368,368,368,368,367,368,0,0,0,0,384,0,0,0,391,391,0,392,393,393,394,396,397,398,398,399,400,400,400,400,401,401,401,401,401,401,402,403,403,404,404,404,403,403,402,402,401,401,401,401,401,401,402,402,402,402,403,403,403,403,403,403,404,404,404,405,405,406,407,407,408,410,412,415,0,0,0,0,0,0,433,432,432,433,434,435,436,437,437,0,0,0,0,0,0,436,438,440,441,443,443,444,444,443,443,443,443,443,443,443,442,442,442,440,439,440,440,440,443,0,448,453,456,457,461,463,464,465,466,465,465,466,467,467,462,463,466,467,467,468,467,467,466,464,462,461,460,459,457,455,453,452,450,449,448,448,448,449,460,457,467,473,477,478,478,476,474,472,471,469,468,466,465,465,464,463,464,464,465,465,465,466,466,467,467,466,466,465,464,463,462,462,461,460,459,459,459,460,460,462,463,468,469,470,471,471,469,467,466,465,464,463,461,460,460,459,459,459,461,462,464,467,468,469,469,469,469,468,466,465,464,463,461
0,0,321,321,321,321,321,321,321,322,322,323,323,323,324,324,324,325,325,327,328,329,330,331,332,333,333,334,335,335,335,335,335,335,335,0,0,0,0,0,0,0,0,0,0,0,0,0,0,0,0,0,0,0,0,0,0,0,0,0,0,0,0,0,0,0,0,0,0,362,364,0,369,369,370,370,370,370,369,369,369,369,369,369,369,369,369,368,368,368,368,368,367,371,0,0,0,385,387,388,388,389,390,391,391,392,393,393,395,396,397,398,399,399,399,400,400,400,400,401,401,401,401,402,402,403,403,403,402,401,400,400,400,400,399,400,400,400,400,401,401,401,402,402,402,403,403,403,403,403,404,404,405,405,406,407,407,408,412,415,0,0,0,0,434,435,435,435,435,435,0,0,0,440,440,441,442,0,0,0,0,438,438,440,440,441,442,442,443,443,442,442,442,443,443,443,443,443,442,441,440,438,437,435,434,437,0,0,435,437,440,444,446,450,457,458,458,458,457,456,456,457,458,460,461,462,463,463,463,463,462,461,460,459,458,456,454,452,451,449,447,446,446,445,445,448,0,460,474,476,475,474,473,471,469,468,467,465,465,463,463,462,462,463,463,463,464,465,465,466,466,466,466,466,464,463,462,462,461,459,459,458,458,458,458,459,461,462,466,468,469,469,469,468,467,465,463,462,461,460,459,458,458,458,458,460,460,462,464,465,465,466,466,466,465,464,463,463,462,461
322,321,321,321,321,321,321,321,322,322,323,323,324,324,324,324,325,325,325,327,327,0,0,331,331,332,333,334,334,0,335,335,335,335,0,0,0,0,0,0,0,0,0,0,0,0,0,0,0,0,0,0,0,0,0,0,0,0,0,0,0,0,0,0,0,0,0,0,0,0,0,0,369,369,370,371,371,371,371,371,370,370,370,370,369,369,369,369,369,370,370,370,0,0,379,384,385,386,387,387,388,389,390,390,391,0,392,393,394,395,396,397,398,398,399,399,399,399,400,399,399,399,399,400,400,400,400,400,400,400,399,399,398,398,398,399,399,399,399,400,401,401,401,402,402,402,403,403,403,403,403,404,404,405,407,408,409,414,416,420,0,437,435,436,437,437,437,437,437,437,438,0,443,445,443,444,445,445,448,448,442,444,443,0,441,441,441,441,441,442,441,441,442,442,443,443,442,442,441,440,440,437,0,435,432,431,430,430,431,432,0,0,441,444,447,451,453,454,454,454,454,454,454,455,456,457,458,458,460,460,460,459,459,458,457,455,453,451,450,448,446,445,444,443,443,443,444,452,456,460,463,467,468,468,467,465,464,463,462,461,461,461,461,461,462,462,463,464,465,465,466,466,466,466,464,463,462,461,460,459,458,457,456,456,455,456,458,460,463,464,465,466,465,464,463,461,460,459,459,459,459,458,458,459,459,460,461,461,462,462,462,463,464,464,463,463,463,463,463,462
322,321,321,321,321,321,321,322,322,322,323,323,324,324,324,324,0,0,0,0,0,0,0,0,0,0,0,0,334,0,0,0,0,0,0,0,0,0,0,0,0,0,0,0,0,0,0,0,0,0,0,0,0,0,0,0,0,0,0,0,0,0,0,0,0,0,0,0,0,0,0,0,0,0,0,0,0,371,371,371,371,371,370,370,370,370,0,371,0,0,0,0,0,0,0,385,386,387,387,388,388,389,390,390,391,391,392,393,393,395,395,396,397,398,398,398,399,399,399,398,398,397,397,397,394,394,395,396,397,397,396,396,396,396,397,397,398,399,399,400,400,401,401,402,402,402,403,403,403,403,404,404,404,406,410,412,414,425,0,0,435,438,440,441,441,441,440,440,440,440,441,443,444,446,447,448,448,449,448,448,448,446,445,444,442,442,441,441,441,440,440,441,441,442,442,442,442,441,440,440,439,436,0,0,431,430,428,428,428,428,428,430,432,435,440,443,446,451,452,451,451,451,452,452,453,454,455,456,458,458,459,458,458,457,456,454,452,450,449,448,445,444,443,442,441,441,440,442,445,455,458,460,464,465,462,461,460,460,459,458,459,459,459,460,461,461,462,463,464,465,465,465,465,465,464,463,462,461,459,457,456,455,454,454,453,454,456,458,461,462,463,463,463,462,461,460,459,458,458,458,458,458,458,458,459,461,461,461,463,463,463,463,464,464,463,463,463,463,463,462
0,322,321,322,322,322,322,322,323,323,0,0,0,0,0,0,0,0,0,0,0,0,0,0,0,0,0,0,0,0,0,0,0,0,0,0,0,0,0,0,0,0,0,0,0,0,0,0,0,0,0,0,0,0,0,0,0,0,0,0,0,0,0,0,0,0,0,0,0,0,0,0,0,0,0,0,0,0,371,371,371,371,371,371,0,0,0,0,0,0,0,0,380,0,0,0,386,386,387,387,387,388,388,389,389,390,391,392,392,393,394,394,395,396,396,396,395,395,395,393,392,392,391,391,391,391,0,393,395,395,395,395,396,396,396,396,398,398,399,400,401,402,402,403,0,0,405,405,405,405,406,406,407,0,0,0,0,0,0,435,437,439,440,441,441,441,441,441,441,441,442,443,444,446,447,447,448,447,448,448,447,446,445,443,442,441,440,440,440,439,439,439,440,440,441,441,441,440,440,439,438,435,0,433,431,429,427,426,425,425,424,424,427,0,431,437,440,445,447,448,448,448,448,448,448,450,450,452,454,455,456,456,456,455,454,452,450,449,447,446,444,443,442,441,440,440,439,440,442,448,455,455,459,460,460,459,459,458,458,458,458,458,459,460,461,461,462,462,463,464,464,464,465,464,464,462,462,461,459,457,455,454,453,452,452,452,455,456,459,460,461,461,461,460,459,459,458,457,457,457,457,457,457,458,459,460,461,461,463,463,464,464,464,463,463,463,462,462,462,462
0,322,321,321,322,322,322,322,0,0,0,0,0,0,0,0,0,0,0,0,0,0,0,0,0,0,0,0,0,0,0,0,0,0,0,0,0,0,0,0,0,0,0,0,0,0,0,0,0,0,0,0,0,0,0,0,0,0,0,0,0,0,0,0,0,0,0,0,0,0,0,0,0,0,0,0,0,0,372,371,371,371,371,373,374,374,0,377,378,0,379,0,381,0,0,0,386,386,387,387,387,387,388,388,389,390,390,391,391,393,393,394,395,395,396,395,395,394,0,0,390,0,389,389,389,389,0,391,393,394,394,395,395,395,396,396,397,398,399,401,402,402,404,404,0,0,0,407,407,407,0,0,0,0,0,0,0,434,437,438,438,440,440,440,441,441,441,442,442,442,442,443,443,445,445,446,447,447,447,447,446,445,444,443,442,440,439,438,438,436,435,435,435,435,436,436,436,436,435,435,434,433,431,429,428,426,425,422,421,420,419,418,418,419,420,422,427,431,438,442,445,447,447,447,448,449,450,450,453,454,455,455,455,454,454,452,449,448,446,445,443,443,442,441,440,440,440,441,443,447,449,451,456,457,457,457,457,457,457,457,458,458,459,459,461,461,462,462,463,463,463,463,464,463,463,462,461,460,459,457,455,453,452,452,451,451,453,454,456,458,459,460,460,459,458,458,457,456,456,456,456,456,457,457,458,460,461,462,464,465,465,465,465,464,464,463,462,462,461,461
0,0,322,322,321,0,0,322,322,0,0,0,0,0,0,0,0,0,0,0,0,0,0,0,0,0,0,0,0,0,0,0,0,0,0,0,0,0,0,0,0,0,0,0,0,0,0,0,0,0,0,0,0,0,0,0,0,0,0,0,0,0,0,0,0,0,0,0,0,0,0,0,0,0,0,0,0,0,0,0,0,0,0,374,376,376,377,379,380,381,381,381,382,383,383,385,385,386,386,386,387,387,388,388,389,389,390,390,391,392,393,393,394,394,395,394,393,392,0,0,388,0,388,387,387,388,0,0,391,393,393,394,395,395,396,396,398,398,399,401,402,0,405,406,0,0,408,0,0,0,0,0,0,0,431,433,435,436,438,439,439,440,440,440,441,441,442,442,442,441,442,442,442,442,443,443,444,444,444,444,443,443,442,441,440,439,437,436,435,434,433,432,432,431,431,432,432,432,431,431,431,430,428,427,426,425,424,421,420,418,418,416,416,416,416,417,0,0,429,439,442,446,446,446,447,448,449,450,450,452,453,454,454,453,452,451,448,447,445,444,443,442,442,441,440,440,440,441,442,443,447,449,451,453,454,454,454,455,455,456,457,458,459,460,461,461,462,462,463,463,463,463,463,463,463,461,460,460,459,457,454,452,452,451,450,450,451,452,454,457,458,459,459,458,458,457,456,456,455,455,456,456,456,457,458,461,462,463,466,466,466,466,466,465,464,463,462,462,461,461
0,0,0,321,321,321,321,321,321,322,322,0,0,0,0,0,0,0,0,0,0,0,0,0,0,0,0,0,0,0,0,0,0,0,0,0,0,0,0,0,0,0,0,0,0,0,0,0,0,0,0,0,0,0,0,0,0,0,0,0,0,0,0,0,0,0,0,0,0,0,0,0,0,0,0,0,0,0,0,0,0,0,0,376,377,378,379,380,381,381,381,381,382,0,0,384,385,386,386,386,387,387,387,388,388,389,390,390,391,392,393,393,393,394,394,394,0,0,0,389,387,386,386,384,385,385,0,388,390,393,393,394,395,395,396,396,398,399,399,402,403,404,406,407,408,410,410,411,411,411,414,416,419,0,0,435,437,438,439,440,440,440,441,442,442,442,442,441,441,440,440,440,440,440,441,442,442,442,442,442,442,441,440,440,439,438,436,434,433,431,429,429,428,427,428,428,428,428,428,427,427,427,426,425,424,423,422,419,418,417,416,415,414,413,413,413,415,418,432,436,439,442,445,446,447,447,448,449,449,451,451,452,452,451,451,450,447,446,444,443,443,442,441,441,441,440,440,441,442,443,445,447,446,446,446,445,445,446,447,449,450,457,459,460,461,462,462,462,463,463,462,462,462,462,462,461,460,459,458,456,453,452,451,450,449,449,450,451,453,456,458,459,460,459,458,457,456,456,455,455,456,456,457,458,459,462,464,465,469,470,470,469,468,467,466,464,462,461,461,460
0,0,0,0,0,0,0,0,0,0,0,0,0,0,0,0,0,0,0,0,0,0,0,0,0,0,0,0,0,0,0,0,0,0,0,0,0,0,0,0,0,0,0,0,0,0,0,0,0,0,0,0,0,0,0,0,0,0,0,0,0,0,0,0,0,0,0,0,0,0,0,0,0,0,0,0,0,0,0,370,371,372,373,375,378,379,379,380,0,0,380,380,381,0,382,383,384,385,386,386,387,387,387,388,388,388,389,389,390,391,391,392,392,393,394,0,392,390,389,387,386,0,383,0,0,383,386,388,390,393,394,395,397,397,397,398,399,400,401,403,405,406,408,409,410,411,412,413,413,415,416,418,0,0,431,435,436,437,439,440,440,440,441,442,442,442,441,440,440,439,439,438,438,439,440,440,440,440,440,440,440,439,439,439,438,437,435,432,0,0,427,424,423,422,423,423,424,424,424,424,424,424,424,423,423,422,421,418,417,416,414,413,411,411,411,411,411,413,416,0,442,442,445,445,445,446,446,447,447,448,449,449,448,447,446,445,444,441,440,440,440,440,440,441,441,441,441,442,442,443,445,445,445,445,444,0,0,0,442,444,445,453,459,460,461,462,462,462,462,462,462,462,462,461,461,460,459,458,457,455,452,451,450,450,449,449,449,450,452,455,457,459,460,459,459,458,457,456,456,456,456,456,457,458,459,462,465,466,470,471,471,470,469,467,466,464,462,461,460,459
0,0,0,0,0,0,0,0,0,0,0,0,0,0,0,0,0,0,0,0,0,0,0,0,0,0,0,0,0,0,0,0,0,0,0,0,0,0,0,0,0,0,0,0,0,0,0,0,0,0,0,0,0,0,0,0,0,0,0,0,0,0,0,0,0,0,0,0,0,0,0,0,0,0,0,0,0,369,369,370,370,372,373,374,377,378,379,379,379,380,380,380,380,381,382,383,383,384,386,386,386,387,387,387,387,388,388,388,389,390,391,391,392,0,0,0,0,0,0,0,0,0,0,0,0,0,0,0,0,394,394,395,397,398,398,399,400,401,402,404,405,406,408,409,410,411,413,414,415,417,418,420,425,428,430,434,435,436,438,439,440,441,442,442,442,441,440,440,439,438,437,437,437,438,439,439,439,439,439,438,438,437,437,437,0,435,0,0,0,0,418,416,415,414,414,415,415,416,416,416,417,417,417,417,416,416,415,414,412,411,410,409,409,408,407,407,407,405,404,404,409,0,445,445,445,446,446,446,446,447,447,447,445,443,442,441,440,438,438,438,438,439,440,440,440,441,442,442,443,444,445,445,445,0,442,440,0,437,0,0,0,449,454,460,0,0,0,462,462,462,462,461,461,461,461,459,458,457,456,455,452,450,0,449,448,448,448,449,450,0,0,0,459,459,459,458,457,457,457,457,456,456,456,457,458,462,465,466,471,472,472,471,469,468,466,464,461,460,458,457
0,0,0,0,0,0,0,0,0,0,0,0,0,0,0,0,0,0,0,0,0,0,0,0,0,0,0,0,0,0,0,0,0,0,0,0,0,0,0,0,0,0,0,0,0,0,0,0,0,0,0,0,0,0,0,0,0,0,0,0,0,0,0,0,0,0,0,0,0,0,0,0,367,368,369,369,369,369,369,370,370,371,373,0,377,378,378,379,379,379,379,379,380,380,381,382,383,384,385,386,386,386,387,387,387,387,388,388,388,389,390,390,391,392,392,392,391,0,0,0,0,0,0,0,0,0,0,0,0,394,395,397,398,399,399,401,401,402,403,404,405,407,409,410,411,412,414,415,416,418,419,420,424,427,429,431,432,434,435,438,439,440,442,442,442,440,439,438,437,436,435,435,436,436,437,436,436,435,434,433,433,432,431,431,430,0,433,0,0,0,412,411,411,411,411,411,412,412,412,412,413,413,413,413,412,411,411,410,409,408,408,407,407,406,406,405,405,404,403,403,402,402,0,445,445,445,445,445,446,447,446,445,444,440,439,438,437,0,435,435,435,436,437,437,438,439,440,441,443,443,444,444,444,441,0,437,435,434,430,426,417,412,410,0,0,0,0,461,462,462,462,461,0,0,0,0,0,0,0,0,0,0,0,0,450,450,450,451,455,0,456,458,459,459,459,458,457,457,457,456,455,454,454,455,459,460,462,464,468,469,470,468,466,463,462,461,458,457,456,455
0,0,0,0,298,298,298,299,0,0,0,0,0,0,0,0,0,0,0,0,0,0,0,0,0,0,0,0,0,0,0,0,0,0,0,0,0,0,0,0,0,0,0,0,0,0,0,0,0,0,0,0,0,0,0,0,0,0,0,0,0,0,0,0,0,0,0,0,0,0,0,367,0,368,368,369,369,369,370,370,370,371,373,374,376,377,377,378,378,379,379,379,379,380,380,381,383,383,385,385,386,387,387,387,387,387,387,387,388,388,389,389,390,391,391,392,391,392,392,0,0,0,0,0,0,0,0,0,0,397,398,399,400,401,401,402,402,403,403,404,406,407,409,410,411,413,414,415,415,417,418,420,422,426,427,430,431,433,0,438,440,0,441,441,441,440,438,437,436,435,435,435,435,435,436,435,435,434,432,431,429,428,427,424,422,0,0,0,0,408,407,407,407,408,409,410,410,410,410,410,410,409,409,409,408,408,407,407,406,406,405,405,405,405,405,404,404,403,403,402,401,401,400,0,445,445,445,446,445,446,444,443,0,437,435,434,0,432,432,432,432,433,434,435,436,436,439,440,441,442,442,442,441,438,434,431,429,426,423,422,415,412,410,408,405,403,400,397,394,392,0,0,0,0,0,0,0,0,0,0,0,0,0,0,0,0,0,0,0,0,0,0,461,461,460,460,457,456,455,454,453,450,450,450,0,456,458,461,467,468,469,466,463,461,459,458,456,454,453,453
0,0,0,298,298,298,298,298,299,299,0,0,0,0,0,0,0,0,0,0,0,0,0,0,0,0,0,0,0,0,0,0,336,0,0,0,0,0,0,0,0,0,0,0,0,0,0,0,0,0,0,0,0,0,0,0,0,0,0,0,0,0,0,0,0,0,0,0,0,0,366,367,367,368,368,369,369,369,370,370,370,371,372,373,376,377,377,378,378,378,378,378,379,379,380,381,382,383,383,385,386,387,387,387,387,387,387,387,387,387,388,388,389,391,391,393,393,395,397,0,0,0,0,0,0,0,0,0,0,0,404,0,0,0,404,404,404,404,405,406,407,408,410,411,411,412,413,0,415,416,417,418,420,423,425,427,429,431,0,439,0,441,0,441,0,437,435,0,434,433,433,433,0,434,435,435,434,433,430,427,425,423,421,419,413,0,0,0,0,405,404,405,406,407,408,408,408,408,408,408,407,407,407,407,406,405,405,404,404,404,404,404,404,404,403,403,403,403,401,400,400,400,400,399,399,399,445,444,445,443,0,0,0,0,428,425,425,425,426,426,427,428,429,431,431,432,434,436,437,437,437,437,436,435,432,429,426,423,0,419,414,411,410,407,405,403,400,395,394,391,0,0,0,0,0,0,0,0,0,0,0,0,0,0,0,0,0,0,0,0,0,462,462,461,461,460,456,454,452,451,450,445,444,445,446,447,451,455,459,461,461,461,458,457,455,453,452,451,450,450
0,0,0,0,298,298,298,298,298,299,0,0,0,0,0,0,0,0,0,0,0,0,0,0,0,0,0,0,0,0,0,0,336,0,336,336,0,0,337,0,0,0,341,341,342,342,0,0,0,0,0,0,0,0,0,0,0,0,0,0,0,0,0,0,0,0,0,363,364,365,366,367,367,367,368,369,369,369,369,370,370,371,372,373,373,375,376,376,377,378,378,378,379,379,380,381,382,382,383,386,387,387,388,388,387,387,387,387,387,387,388,388,388,390,391,392,394,396,0,0,0,0,0,0,0,0,0,0,0,0,0,405,0,0,405,405,405,406,406,407,408,0,410,410,411,411,413,413,414,415,416,417,418,421,423,424,426,429,0,0,0,439,0,0,0,433,431,428,428,427,428,429,429,431,433,434,433,432,430,423,420,418,416,413,0,0,402,401,401,401,403,404,405,406,407,407,407,406,406,405,404,404,403,403,402,402,401,401,401,401,401,401,401,401,401,401,400,400,400,399,399,399,398,398,398,398,398,0,0,0,0,0,0,0,422,420,421,422,423,423,425,427,428,430,430,431,433,435,435,436,435,435,435,434,431,427,424,421,418,416,414,410,408,406,405,402,400,396,394,391,389,387,0,0,0,0,0,0,0,0,0,0,0,0,0,479,0,0,0,0,0,461,460,460,460,458,0,0,0,447,445,443,440,440,441,442,443,447,451,451,451,0,451,448,447,446,446,446,447,444
296,297,297,298,298,298,298,298,298,299,299,0,0,0,0,0,0,0,0,0,0,0,0,0,0,0,0,337,337,337,337,337,337,337,337,337,337,337,337,338,340,341,341,341,342,343,343,0,0,0,0,0,0,0,0,0,0,0,0,356,0,0,0,360,361,361,362,363,364,365,366,366,366,367,368,368,368,369,369,370,370,371,371,372,373,374,375,376,377,377,378,378,378,379,379,380,381,382,383,386,387,387,388,388,388,387,387,386,386,387,387,387,387,388,391,392,392,0,0,0,411,0,0,0,0,0,0,0,408,0,407,407,406,406,406,406,406,407,407,407,408,408,409,410,0,411,412,412,413,414,415,416,417,418,419,419,0,0,0,0,0,0,0,0,0,418,0,0,0,423,424,422,425,428,431,0,433,427,423,417,416,0,405,403,402,400,400,400,400,401,402,404,405,405,407,407,407,406,405,404,404,403,402,401,401,401,400,400,400,400,399,399,399,399,399,399,399,399,398,398,398,398,398,398,398,398,397,397,0,0,0,0,0,0,417,418,418,420,420,422,425,426,428,430,431,432,433,434,434,434,434,433,433,431,429,0,422,419,416,414,412,409,407,405,404,402,399,396,0,391,389,0,0,0,0,0,0,0,0,0,0,0,0,0,486,482,480,476,0,468,463,459,454,452,0,0,0,0,0,437,436,435,434,434,433,434,435,436,435,0,0,441,441,433,433,432,433,435,436,438
296,297,297,298,298,298,298,298,299,299,299,0,0,0,323,323,323,323,323,323,0,0,0,0,0,0,0,0,337,337,337,337,337,337,337,337,337,337,337,338,340,341,341,342,343,343,343,343,0,0,0,0,0,0,0,0,0,355,0,356,356,357,358,359,361,361,362,363,364,364,365,366,366,366,367,368,368,368,369,369,370,371,371,372,372,374,374,375,377,377,378,378,379,379,379,380,381,382,0,0,0,0,0,388,388,388,387,387,387,387,387,386,0,0,0,0,0,0,0,0,412,413,413,413,413,411,411,410,409,408,408,408,407,407,407,407,407,407,407,407,408,408,408,409,409,410,410,410,411,411,411,413,413,415,416,416,0,0,0,0,0,0,0,0,0,0,413,0,0,415,417,0,422,0,0,0,0,0,0,0,0,0,402,400,399,398,398,399,399,400,401,403,405,405,406,406,406,405,405,404,403,402,401,401,400,400,399,399,399,398,398,398,398,398,398,398,398,398,397,397,397,397,397,397,397,397,397,397,397,397,0,0,0,0,0,414,416,417,419,420,425,427,429,431,431,433,433,434,434,433,431,431,430,425,422,419,415,416,413,409,408,407,405,403,403,401,399,396,393,391,389,386,384,0,0,0,0,0,0,0,0,0,0,488,486,482,480,476,472,468,463,459,452,450,0,0,0,0,0,432,432,431,431,430,430,430,431,431,432,431,428,427,0,428,428,428,428,430,431,434
296,296,297,298,298,298,298,298,299,299,299,299,0,324,324,323,323,323,323,323,0,0,0,0,0,0,0,0,337,337,337,337,337,337,337,337,337,337,338,338,340,341,341,342,343,343,343,344,0,0,0,0,0,0,0,0,354,355,355,356,356,357,358,359,360,361,361,363,363,364,364,365,366,366,367,367,368,368,369,369,370,370,371,371,372,374,374,375,377,377,377,378,378,379,379,380,380,381,382,385,0,388,388,388,388,387,387,387,386,386,387,387,389,0,0,0,0,0,0,0,0,413,413,413,413,411,411,410,409,409,408,408,408,408,407,407,407,407,407,407,407,407,408,408,408,408,409,409,409,409,410,410,411,411,413,413,413,413,413,413,0,0,0,0,410,410,411,411,412,414,415,417,419,0,0,0,0,0,0,0,0,0,399,398,397,397,397,397,398,399,400,403,404,405,406,406,405,405,404,403,402,402,401,400,400,399,398,398,398,397,397,397,397,397,397,397,396,396,396,395,395,395,395,395,395,395,396,396,396,396,396,396,0,0,409,408,410,416,415,417,424,426,428,431,432,433,433,432,431,430,428,425,423,420,418,415,0,409,407,407,406,405,403,402,401,400,398,395,0,0,0,0,383,0,0,0,0,0,0,0,0,0,0,489,487,482,480,476,472,469,463,458,455,447,444,0,0,0,0,429,428,428,428,428,427,427,427,427,427,427,426,426,425,425,425,425,425,427,428,430
0,0,297,298,298,298,298,298,298,298,299,299,299,324,324,324,323,323,323,324,325,326,327,332,335,337,337,338,338,337,338,337,337,337,337,337,337,338,338,339,341,341,342,343,343,343,343,344,0,0,0,349,0,351,352,353,353,355,355,356,356,357,358,359,360,360,361,362,362,363,363,364,365,365,366,366,367,367,368,369,369,370,371,371,372,374,374,375,377,377,378,378,379,379,379,380,380,0,0,0,0,389,389,0,0,0,0,0,0,392,0,0,0,0,0,0,0,0,0,414,413,413,413,412,412,411,410,410,409,409,408,408,407,407,407,407,407,407,407,407,407,407,407,407,407,407,407,407,407,407,407,408,408,409,410,411,411,411,411,411,410,0,410,409,409,409,409,409,410,411,413,414,415,0,0,0,0,0,0,0,0,0,398,397,397,396,396,396,397,398,399,402,404,404,405,405,405,405,403,403,402,401,401,400,399,399,398,398,397,396,396,395,395,395,395,394,394,394,394,394,393,394,394,394,394,395,395,395,395,396,396,396,399,0,0,405,407,410,412,415,419,426,429,431,432,432,432,431,430,428,426,423,420,417,415,0,0,409,405,405,404,403,402,401,400,399,397,394,0,0,0,384,0,0,0,0,0,0,0,0,0,0,0,489,487,482,479,476,471,0,462,457,453,0,442,438,435,432,430,428,427,426,426,425,425,424,424,424,424,424,423,423,423,422,422,423,423,424,425,427
0,296,296,298,298,298,298,0,298,298,298,299,299,324,324,324,324,324,323,324,325,325,0,330,332,337,337,337,337,338,338,337,337,337,337,337,338,338,338,339,341,341,341,342,343,343,343,344,0,346,346,348,0,350,352,352,353,354,355,355,357,357,358,358,359,360,360,362,362,362,363,364,364,365,366,366,367,367,368,368,368,369,0,370,0,0,374,375,377,378,378,378,379,379,379,379,0,0,0,0,0,0,0,0,392,0,0,392,392,0,0,0,0,0,0,0,0,0,0,413,413,413,412,412,411,410,410,409,408,408,408,407,407,407,407,407,407,407,407,407,407,407,407,407,406,406,406,406,406,406,406,407,406,407,408,408,409,409,409,409,409,409,409,409,408,408,409,409,409,409,410,0,0,0,0,0,393,393,396,398,398,398,398,397,396,395,395,395,395,0,0,0,402,403,404,404,404,404,403,402,402,401,401,400,400,399,398,397,397,395,395,394,394,394,394,393,393,393,393,392,392,392,392,392,393,393,394,394,395,395,395,396,398,0,0,402,404,405,409,0,417,425,430,432,433,433,432,431,430,427,0,0,419,416,413,411,410,407,404,403,403,402,401,399,399,398,0,395,393,0,0,0,0,0,0,0,0,0,0,0,0,0,0,0,487,482,479,475,470,466,0,456,451,0,437,435,432,431,430,428,427,426,425,424,423,422,422,422,422,422,422,422,421,420,420,420,420,420,421,422
0,0,297,298,298,298,298,298,298,298,299,299,299,324,324,324,324,324,324,324,325,0,0,0,331,0,337,337,337,338,338,338,338,338,338,338,338,338,338,339,0,341,341,341,0,0,0,0,0,0,346,348,349,350,352,353,353,354,355,355,356,357,358,358,359,360,360,361,362,362,363,364,364,365,366,366,366,367,367,368,0,368,0,0,0,0,0,374,377,377,378,378,379,379,380,0,0,0,0,0,0,0,0,0,0,0,0,0,397,0,0,0,402,0,0,0,409,411,409,410,410,410,410,409,409,408,408,408,407,407,407,407,406,406,406,406,406,406,406,405,405,405,404,404,404,404,403,403,403,403,404,404,405,406,406,408,408,408,409,409,409,409,409,409,409,409,0,0,0,0,0,0,0,0,0,0,0,0,394,397,399,398,398,397,397,396,395,394,394,394,395,397,400,401,402,403,403,403,402,402,402,401,401,400,399,399,398,397,396,395,394,394,393,393,393,392,392,392,391,391,391,391,391,391,391,392,392,392,393,394,394,394,397,397,398,400,402,404,407,411,0,0,0,433,433,433,432,430,429,427,0,0,417,414,411,409,407,404,402,401,400,400,399,398,397,397,396,395,0,0,389,0,0,0,0,0,0,0,0,0,0,0,0,0,487,484,0,0,0,0,457,0,0,0,438,433,431,430,430,429,427,426,425,424,422,422,422,421,421,422,421,421,421,420,420,420,420,419,420,420
0,0,0,297,298,298,298,298,298,299,0,0,299,325,325,325,324,324,324,324,325,326,326,0,0,0,337,338,338,338,338,338,338,338,338,338,338,0,339,339,340,341,0,0,0,0,0,0,0,344,347,348,349,350,352,0,353,354,354,355,356,357,357,358,359,359,360,361,361,362,363,364,364,364,365,366,366,366,367,0,0,0,0,0,369,371,0,374,377,378,378,378,379,0,0,0,0,0,0,0,0,0,0,0,0,0,0,402,400,401,0,403,403,404,404,405,406,407,407,408,408,409,408,408,407,407,407,406,406,406,405,405,405,405,405,405,405,405,404,404,404,404,403,403,403,403,402,401,401,402,402,403,404,405,405,407,407,408,408,409,409,409,409,409,409,409,0,0,0,0,0,0,0,0,0,0,0,387,0,394,399,398,398,397,397,395,394,393,393,393,393,394,397,398,399,401,401,401,401,401,401,401,401,400,399,398,398,396,395,394,394,393,392,392,392,392,391,391,390,390,389,389,389,389,389,389,389,389,390,391,391,391,392,393,393,394,395,396,396,398,403,410,431,0,0,432,431,428,427,425,425,421,416,413,410,408,406,404,401,400,400,399,399,398,397,397,396,395,0,0,0,0,0,0,0,0,0,0,0,0,0,0,0,0,0,0,0,0,0,0,0,0,440,436,435,431,430,430,429,429,428,426,425,423,422,421,421,421,421,421,421,421,421,420,419,419,419,418,418,418
295,0,0,297,298,298,298,298,298,299,299,0,299,0,0,325,325,325,325,325,325,325,326,326,0,0,0,0,337,0,0,0,0,0,0,0,0,338,339,339,340,340,0,0,0,0,0,0,343,345,346,349,0,350,351,352,353,353,354,355,355,356,357,358,358,359,359,360,361,362,362,363,364,364,364,365,366,366,366,366,0,366,0,0,0,0,0,0,0,0,0,0,0,0,0,0,0,0,0,0,0,0,0,0,0,0,403,403,402,402,402,402,402,403,403,403,404,405,405,406,407,407,407,406,406,406,405,405,405,405,405,405,404,404,404,404,404,403,403,403,402,401,400,399,399,399,398,398,398,399,399,400,402,403,404,406,406,407,408,408,408,408,0,0,0,0,0,0,0,0,0,0,0,0,0,0,0,0,400,400,399,399,398,397,394,392,391,391,389,389,389,390,394,393,394,395,398,398,399,399,399,400,399,399,398,397,396,395,394,393,393,392,391,391,391,390,390,389,389,389,388,388,388,388,388,388,388,388,388,389,390,389,390,391,392,392,392,392,393,393,0,0,429,429,429,429,428,425,424,423,422,420,417,415,0,0,0,0,0,400,400,399,399,398,397,397,396,395,0,0,0,0,0,0,0,0,0,0,0,0,0,0,0,0,0,0,0,0,0,0,0,0,0,0,433,431,430,430,429,429,427,426,425,423,422,421,421,421,421,420,421,421,420,420,420,419,419,418,418,418
293,295,296,297,298,298,298,298,299,299,299,0,299,0,0,325,325,325,325,325,325,326,326,328,0,332,0,0,337,338,338,338,338,338,338,339,339,339,339,340,340,339,339,339,339,339,339,340,343,345,346,349,350,350,351,352,352,353,353,354,355,356,357,357,358,359,359,360,361,361,362,363,363,364,0,0,365,366,0,0,0,0,0,0,0,0,0,0,0,0,0,0,0,0,0,0,0,0,0,0,0,0,0,0,0,0,0,403,402,402,402,401,401,402,401,402,403,404,404,405,405,405,404,404,404,404,404,404,404,403,403,403,403,403,402,402,402,401,401,399,399,398,397,395,395,395,394,395,396,396,395,395,398,399,400,404,405,405,406,0,0,0,0,0,0,0,0,0,0,0,0,0,0,0,376,376,376,0,0,398,398,391,397,394,391,390,389,389,388,388,388,389,389,391,392,393,395,396,397,397,397,398,398,397,397,0,395,394,393,392,392,392,391,390,390,390,389,389,388,388,387,387,387,387,386,386,387,387,387,387,388,388,389,390,390,390,390,0,0,0,0,0,420,422,424,424,424,423,422,421,420,418,416,414,0,0,0,0,0,401,400,400,399,398,397,397,396,0,0,0,0,0,0,0,0,0,0,0,0,0,0,0,0,0,0,0,0,0,0,0,0,0,0,0,0,430,430,430,429,429,428,426,0,0,422,420,420,420,420,419,419,420,420,419,419,419,419,418,418,418
294,295,0,0,297,298,298,298,298,299,299,299,0,0,0,0,326,325,325,325,326,327,327,0,0,0,0,0,0,338,339,339,339,339,339,339,339,340,340,340,339,339,339,339,339,339,340,341,344,345,346,349,350,351,351,352,352,353,353,354,355,356,356,357,358,359,359,360,360,361,362,0,0,0,0,0,0,0,0,0,0,0,0,0,0,0,0,0,0,0,0,0,0,0,0,0,0,0,0,0,0,0,0,405,0,404,403,402,401,401,401,400,400,400,400,401,400,400,400,401,401,401,401,400,400,400,400,400,400,399,399,399,398,398,398,397,397,397,396,394,393,395,394,393,388,388,389,392,390,391,392,393,396,398,399,400,404,404,404,0,0,0,0,0,0,0,0,0,0,0,0,0,0,0,377,376,376,375,374,0,0,0,386,387,387,387,387,387,386,386,386,387,387,389,390,391,392,394,394,394,394,395,395,394,0,394,394,393,392,392,391,391,390,390,389,389,388,388,387,387,386,386,385,385,385,384,385,385,385,386,386,387,387,388,388,388,388,389,389,0,388,0,0,417,419,419,419,420,419,419,418,417,416,414,0,0,0,0,0,0,0,401,400,399,398,397,0,0,0,0,0,0,0,0,0,0,0,0,0,0,0,0,0,0,0,0,0,0,0,0,0,0,0,0,0,0,0,0,0,0,0,0,0,0,0,0,419,419,419,418,418,418,418,418,418,418,419,419,418,418
0,0,0,0,0,0,0,0,299,299,299,0,0,0,0,326,326,326,326,0,0,0,0,0,0,0,0,0,0,338,339,339,339,339,339,339,339,339,339,339,339,339,339,339,339,340,340,341,344,0,347,348,349,350,351,352,352,353,353,354,354,356,356,357,358,359,359,360,361,361,0,0,0,0,0,0,0,0,0,0,0,0,0,0,0,0,0,0,0,0,0,0,0,0,0,0,0,0,0,0,0,0,405,404,404,403,403,401,400,399,399,398,398,398,398,398,398,398,399,399,399,399,399,399,399,0,0,398,0,0,0,397,396,396,396,395,395,394,393,392,390,0,0,387,386,386,387,387,388,390,390,391,393,396,397,399,402,0,0,0,0,0,0,0,0,0,0,0,0,0,0,0,0,0,376,376,375,375,0,0,0,382,383,382,0,383,383,384,384,384,385,385,386,387,388,389,390,391,392,392,392,392,392,392,392,392,392,391,391,391,390,390,389,389,389,389,387,386,385,384,384,382,382,382,381,381,381,381,382,382,383,384,385,385,385,385,385,385,385,385,384,384,383,383,385,409,411,415,416,418,418,417,417,0,0,0,0,0,0,0,0,0,0,403,0,0,0,0,0,0,0,0,0,0,0,0,0,0,0,0,0,0,0,0,0,0,0,0,0,0,0,0,0,0,0,0,0,0,0,0,0,0,0,0,0,0,0,0,418,418,418,418,417,417,417,418,418,418,419,419
0,295,0,297,0,0,0,0,299,0,0,0,0,0,0,0,0,0,0,0,0,0,0,327,328,0,333,0,335,338,339,339,339,339,339,339,339,340,340,339,339,339,339,339,340,340,341,342,344,345,346,348,349,349,350,351,351,351,351,351,351,355,352,356,357,358,0,0,0,0,0,0,0,0,0,0,0,0,0,0,0,0,0,0,0,0,0,0,0,0,0,0,0,0,0,0,0,0,0,0,0,0,404,403,403,401,401,399,398,398,397,397,397,397,397,397,397,397,397,397,397,397,398,397,397,397,396,396,396,395,395,395,394,394,394,394,392,392,391,0,388,386,385,385,385,384,385,386,386,387,389,390,392,393,394,395,392,0,0,0,0,0,0,0,0,0,0,0,0,0,0,0,0,0,377,376,375,374,373,373,374,374,374,374,375,376,376,378,379,379,381,381,382,383,384,385,386,387,387,388,387,387,386,386,386,385,385,384,384,385,385,384,384,384,385,386,385,384,384,383,382,381,381,380,380,380,380,380,381,381,382,382,383,383,383,383,383,383,383,383,383,382,382,382,383,383,410,412,415,0,0,0,0,0,0,0,0,0,0,0,0,0,0,0,0,0,0,0,0,0,0,0,0,0,0,0,0,0,0,0,0,0,0,0,0,0,0,0,0,0,0,0,0,0,0,0,0,0,0,0,0,0,0,0,0,0,0,0,0,417,416,416,416,416,416,416,417,418,418,418
0,0,0,0,0,0,0,0,0,0,0,0,0,0,0,0,0,0,0,0,0,0,327,327,327,0,328,0,329,331,337,336,337,339,339,340,340,340,340,340,340,340,340,340,341,341,342,344,345,345,346,348,349,349,350,350,350,350,349,0,0,0,349,0,0,0,0,0,0,0,0,0,0,0,0,0,0,0,0,0,0,0,0,0,0,0,0,0,0,0,0,0,0,0,0,0,0,0,0,0,0,0,401,400,399,399,398,398,397,396,396,396,395,396,395,395,395,396,396,396,396,396,396,395,395,395,394,394,394,393,393,393,392,392,392,391,390,389,388,387,386,384,384,384,383,383,384,384,385,385,386,387,389,0,391,0,0,0,0,0,0,0,0,0,0,0,0,0,0,0,0,0,0,0,0,0,0,374,371,371,371,371,371,371,372,373,374,375,376,377,377,379,380,381,382,383,384,384,385,385,385,384,384,383,382,382,0,0,0,0,381,381,381,381,383,383,383,383,382,0,381,380,379,379,379,378,379,379,379,380,380,381,382,382,382,382,382,382,382,382,382,381,381,381,381,381,382,0,0,0,0,0,0,0,0,0,0,0,0,0,0,0,0,0,0,0,0,0,0,0,0,0,0,0,0,0,0,0,0,0,0,0,0,0,0,0,0,0,0,0,0,0,0,0,0,0,0,0,0,0,0,0,0,0,0,0,0,0,0,416,416,415,414,414,413,414,414,415,416,418
0,0,0,0,0,0,0,0,0,0,0,0,0,0,0,0,0,0,0,326,326,327,326,325,0,0,326,0,0,0,0,0,0,0,340,340,340,340,341,341,341,341,341,341,342,342,343,344,345,346,346,348,348,349,349,349,349,348,348,347,0,0,0,0,0,0,0,0,0,0,0,0,0,0,0,0,0,0,0,0,0,0,0,0,0,0,0,0,0,0,0,0,0,0,0,0,0,0,0,0,0,0,0,0,397,396,396,396,395,394,394,394,394,394,393,393,394,394,394,394,393,393,393,393,392,392,391,391,391,390,390,390,390,389,388,388,387,386,385,384,383,383,382,382,382,382,382,383,383,384,385,386,0,0,0,0,0,0,0,0,0,0,0,0,0,0,0,0,0,0,0,0,0,0,0,0,0,373,0,370,370,369,369,369,370,371,371,372,373,374,376,378,379,379,381,381,381,382,382,382,382,381,381,380,379,379,0,0,0,0,377,378,378,379,381,382,382,381,381,380,380,379,377,377,377,377,377,378,378,378,379,380,381,381,381,381,381,381,381,381,381,381,380,379,378,377,375,375,0,0,0,0,0,0,0,0,0,0,0,0,0,0,0,0,0,0,0,0,0,0,0,0,0,0,0,0,0,0,0,0,0,0,0,0,0,0,0,0,0,0,0,0,0,0,0,0,0,0,0,0,0,0,0,0,0,0,0,0,0,0,0,0,413,413,412,412,413,413,414,416
0,0,0,0,0,0,0,0,0,0,0,0,0,0,0,0,0,322,323,325,0,0,0,325,325,325,325,325,0,0,0,0,0,0,340,340,340,341,341,341,341,341,341,342,342,343,343,345,345,346,346,348,348,348,348,348,347,347,345,345,344,344,342,0,0,0,0,0,0,0,0,0,0,0,0,0,0,0,0,0,0,0,0,0,0,0,0,361,361,0,0,0,0,0,0,0,0,0,0,0,0,0,0,0,393,391,391,391,391,391,391,391,392,392,392,393,393,393,393,393,393,392,392,392,391,391,390,390,389,388,388,388,387,386,386,386,385,384,383,382,382,382,382,382,381,382,382,383,383,384,0,0,0,0,0,0,0,0,0,0,0,0,0,0,0,0,0,0,0,0,0,0,0,0,0,0,0,0,370,369,369,369,368,368,368,368,369,369,371,373,374,376,377,377,378,379,0,0,380,380,380,379,379,378,377,376,375,374,374,0,374,0,0,0,0,0,381,381,379,379,377,377,375,375,375,374,375,375,375,376,377,378,378,379,379,380,380,380,379,379,378,378,377,376,375,374,374,373,373,372,372,371,0,0,0,0,0,0,0,0,0,0,0,0,0,0,0,0,0,0,0,0,0,0,0,0,0,0,0,0,0,0,0,0,0,0,0,0,0,0,0,0,0,0,0,0,0,0,0,0,0,0,0,0,0,0,0,0,0,0,0,0,412,412,411,411,411,412,413,415
294,0,0,0,0,0,0,0,0,0,0,0,0,0,0,0,0,318,322,0,0,324,324,324,323,324,324,324,325,0,328,0,0,0,0,0,340,340,341,341,341,342,342,342,343,343,344,344,345,345,345,346,346,346,346,345,345,345,342,341,341,340,340,339,339,339,339,339,339,339,339,338,0,0,0,0,0,0,0,0,0,0,0,0,361,361,361,361,361,0,0,0,0,0,375,0,0,0,0,0,0,0,384,386,387,387,388,389,389,389,390,390,391,391,392,392,393,393,393,393,392,392,391,391,390,390,389,389,388,387,386,386,386,384,384,384,383,383,382,382,382,381,381,381,381,382,382,383,383,384,0,0,0,0,0,0,0,0,0,0,0,0,0,0,0,0,0,0,0,0,0,0,0,0,0,0,0,0,0,0,368,367,366,366,366,366,367,367,368,370,371,372,374,375,375,376,375,375,375,375,375,377,374,374,373,372,372,371,371,371,371,371,373,374,376,380,380,379,378,377,376,376,375,374,374,374,374,374,374,375,375,377,377,378,378,379,379,379,378,378,377,377,375,375,374,374,373,372,372,372,371,371,371,370,370,0,0,0,0,0,0,0,0,0,0,0,0,0,0,0,0,0,0,0,0,0,0,0,0,0,0,0,0,0,0,0,0,0,0,0,0,0,0,0,0,0,0,0,0,0,0,0,0,0,0,0,0,0,0,0,0,0,0,410,410,410,410,411,411,413
294,0,0,0,0,0,0,0,0,0,0,0,305,307,308,310,0,320,321,322,323,323,323,323,323,324,324,324,326,326,328,332,0,0,0,0,340,340,340,341,341,342,342,342,343,343,343,343,344,344,344,345,345,345,345,345,344,343,342,340,340,339,339,339,339,338,339,338,338,339,338,338,0,0,0,0,0,0,0,0,0,0,0,361,361,361,362,363,363,366,0,0,374,0,375,376,0,377,378,378,0,0,381,383,384,385,385,387,387,388,389,390,390,391,392,392,392,392,392,392,392,391,391,390,390,389,388,387,387,386,385,384,384,383,383,382,382,382,381,381,381,381,381,381,381,382,382,0,0,0,0,0,0,0,0,0,0,0,0,0,0,0,0,0,0,0,0,0,0,0,0,0,0,0,0,0,0,369,367,366,366,366,366,366,366,366,366,367,368,369,370,371,373,373,374,374,374,373,373,373,372,372,372,372,372,371,371,370,370,370,371,371,372,374,375,377,378,378,377,377,376,375,374,373,373,373,373,373,374,374,374,375,376,377,377,378,378,378,377,377,376,375,375,374,373,372,372,371,371,371,371,371,371,370,369,369,368,0,0,0,0,0,0,0,0,0,0,0,0,0,0,0,0,0,0,0,0,0,0,0,0,0,0,0,0,0,0,0,0,0,0,0,0,0,0,0,0,0,0,0,0,0,0,0,0,0,0,0,0,0,0,0,0,0,409,407,407,407,408,408
295,0,0,0,0,0,0,0,0,0,0,305,305,307,308,310,315,0,321,323,323,324,324,324,324,325,325,326,327,0,0,0,0,0,338,339,339,340,340,341,341,341,342,342,342,343,342,343,343,343,344,344,345,345,344,0,0,342,341,340,339,339,339,339,339,339,339,338,338,339,339,338,338,0,0,0,0,0,0,0,0,0,361,361,361,361,362,363,365,0,0,0,374,375,376,376,377,377,377,378,379,380,380,382,383,383,384,386,386,387,388,388,389,389,390,391,391,391,391,391,391,390,389,389,388,387,386,386,385,384,383,382,381,381,381,381,380,381,380,381,381,381,381,381,381,382,382,0,0,0,0,0,0,0,0,0,0,0,0,0,0,0,0,0,0,0,0,0,0,0,0,0,0,0,0,0,0,0,0,366,366,366,366,366,366,366,366,367,367,369,369,370,371,372,372,371,371,370,370,370,370,370,370,370,370,370,370,370,370,370,370,370,371,373,374,377,377,377,377,376,375,375,374,373,373,373,373,372,373,373,373,373,375,375,376,377,377,377,376,376,375,374,374,373,372,372,372,371,371,371,371,371,371,370,369,369,368,367,366,366,0,0,0,0,0,0,0,0,0,0,0,0,0,0,0,0,0,0,0,0,0,0,0,0,0,0,0,0,0,0,0,0,0,0,0,0,0,0,0,0,0,0,0,0,0,0,0,0,0,0,0,0,0,0,0,406,406,407,407,407
295,0,0,0,0,0,0,0,0,0,0,0,305,306,308,309,0,317,321,323,323,324,324,325,0,326,326,0,0,0,0,333,334,335,338,338,339,339,340,340,341,341,341,341,342,342,342,342,342,342,342,343,344,344,343,342,341,0,0,0,0,338,338,338,338,339,338,338,338,338,338,338,338,338,0,0,0,0,0,0,0,361,361,361,361,361,362,0,367,0,0,0,374,374,375,375,376,377,377,378,379,379,379,380,381,382,382,384,385,386,388,388,389,389,390,390,390,391,391,391,390,389,389,388,388,387,386,385,384,383,382,381,381,380,380,380,380,380,380,380,0,0,382,0,0,0,0,0,0,0,0,0,0,0,0,0,0,0,0,0,0,0,0,0,0,0,0,0,0,0,0,0,0,0,0,0,0,0,0,0,365,365,365,365,365,366,366,367,367,368,369,369,0,0,0,370,369,0,0,368,367,367,367,368,369,369,369,369,370,370,370,370,371,372,0,0,376,376,375,375,374,374,373,372,372,372,372,371,371,371,371,371,371,372,373,373,374,374,374,374,373,373,372,371,371,371,371,370,370,370,370,371,370,370,370,369,368,367,367,366,366,0,0,0,0,0,0,0,0,0,0,0,0,0,0,0,0,0,0,0,0,0,0,0,0,0,0,0,0,0,0,0,0,0,0,0,0,0,0,0,0,0,0,0,0,0,0,0,0,0,0,0,0,0,0,405,405,405,406,406
296,296,0,0,0,0,0,0,0,0,0,305,305,306,308,309,315,317,322,323,324,325,325,325,0,0,0,329,330,331,332,334,335,336,338,338,338,339,339,339,339,340,340,341,341,341,341,341,340,341,341,341,0,342,0,0,0,0,0,0,0,338,338,338,338,338,338,338,338,338,338,339,339,0,0,0,0,0,0,0,0,0,362,362,362,362,364,0,0,370,373,0,374,374,375,375,376,376,377,377,378,378,379,379,381,381,382,384,385,386,387,388,388,389,389,389,390,390,390,390,390,389,388,387,387,386,385,384,383,383,381,381,380,380,379,379,380,379,380,380,0,0,0,0,0,0,0,0,0,0,0,0,0,0,0,0,0,0,0,0,0,0,0,0,0,0,0,0,0,0,0,0,0,0,0,0,0,0,0,0,365,365,364,364,365,0,0,367,367,368,369,369,0,0,0,0,0,0,0,364,364,364,365,365,366,367,368,368,369,370,370,370,371,372,372,374,374,374,374,0,0,0,372,372,372,372,372,371,371,370,370,370,370,370,371,372,373,373,373,373,372,372,371,371,371,370,370,370,370,370,370,370,370,370,370,369,368,368,367,366,365,364,0,0,0,0,0,0,0,0,0,0,0,0,0,0,0,738,0,0,0,0,0,0,0,0,0,0,0,0,0,0,0,0,0,0,0,0,0,0,0,0,0,0,0,0,0,0,0,0,0,0,0,0,0,0,404,405,405,405
296,296,296,297,0,0,301,302,0,303,304,305,305,306,307,308,0,318,322,324,324,325,326,327,329,330,329,331,331,332,334,335,335,336,337,338,338,338,339,339,339,340,340,340,340,340,340,340,339,0,0,0,0,338,0,0,0,0,0,0,0,0,0,0,0,339,339,339,340,340,341,341,341,0,0,0,0,0,0,0,0,0,362,362,362,363,366,0,0,371,373,373,374,374,374,375,375,376,376,377,377,378,378,379,380,381,381,383,384,385,386,387,387,388,388,389,389,389,389,389,388,387,387,386,386,385,384,383,383,382,381,380,380,380,379,379,379,0,379,0,0,0,0,0,0,0,0,0,0,0,0,0,0,0,0,0,1029,1031,1031,1032,1032,1038,0,0,0,0,0,0,0,0,0,0,0,0,0,0,0,0,0,0,0,0,0,0,365,0,0,367,367,0,0,0,0,0,0,0,0,0,363,363,363,363,364,364,365,367,367,368,0,0,0,0,370,371,371,372,373,373,0,0,0,372,371,371,371,371,371,371,370,370,369,369,369,369,369,370,371,371,371,371,371,371,371,370,370,370,370,370,370,370,370,370,370,370,370,370,369,368,367,366,365,364,363,362,362,0,0,0,0,0,0,0,0,0,0,0,0,754,0,749,0,0,0,0,0,0,0,0,0,0,0,0,0,0,0,0,0,0,0,0,0,0,0,0,0,0,0,0,0,0,405,405,405,404,404,403,403,403,403,403
296,296,297,297,298,0,0,0,302,303,304,0,0,0,0,0,0,0,324,325,326,327,328,328,331,331,332,333,334,334,335,336,336,336,337,338,338,338,338,338,339,339,339,340,340,339,339,339,338,0,0,0,336,336,0,0,0,0,0,0,0,0,0,0,0,340,0,341,341,342,0,0,0,0,0,0,0,0,0,0,0,0,0,363,363,364,366,0,0,370,372,373,373,374,374,374,375,375,376,376,377,377,377,378,379,380,381,381,383,382,383,383,384,384,385,385,385,385,385,385,385,385,383,383,383,383,382,381,381,381,380,380,379,379,379,378,378,378,0,0,0,0,0,0,0,0,0,0,1056,0,0,0,1039,1034,1031,1031,1031,1031,1031,1032,1032,0,0,0,0,0,0,0,0,0,0,0,0,0,0,0,0,0,0,0,0,0,0,0,0,0,0,0,0,0,0,0,0,0,0,0,0,0,361,362,362,362,363,364,365,366,367,368,369,0,0,0,369,370,370,371,371,371,371,371,371,371,370,371,371,371,371,371,370,370,369,369,368,368,368,368,369,370,370,370,371,370,370,370,370,370,370,370,370,370,370,370,370,371,370,370,369,368,368,367,365,364,363,362,361,360,0,0,0,0,0,0,0,0,779,778,775,0,0,0,0,0,0,0,0,0,0,0,0,0,0,0,0,0,0,0,0,0,0,0,0,0,0,0,0,0,0,0,0,406,406,405,405,404,404,403,402,403,402,402
297,297,297,297,298,298,0,0,303,305,0,0,0,0,0,0,0,0,0,326,327,328,329,330,331,332,333,334,334,334,335,335,336,336,337,337,338,338,338,338,338,339,339,339,339,339,339,339,338,0,0,337,336,0,0,0,0,0,0,0,0,0,0,0,0,0,0,0,343,0,0,0,349,350,351,355,0,359,0,360,361,362,362,363,363,364,365,0,368,369,371,371,371,372,373,373,373,374,374,374,375,375,376,376,377,378,378,378,379,380,380,381,381,381,382,383,383,383,383,383,383,383,0,381,381,381,380,377,377,377,377,0,0,0,0,0,0,0,0,0,0,0,0,0,0,0,1059,1059,1056,0,0,1045,1038,1034,1031,1029,1029,1029,1029,1031,1032,1036,1036,0,0,0,0,0,0,0,0,0,0,0,0,0,0,0,0,0,0,0,0,0,0,0,0,0,0,0,0,0,0,0,0,0,0,0,0,0,361,362,363,364,364,366,367,368,368,369,0,369,369,369,369,369,369,369,369,369,369,369,369,369,369,370,371,370,370,369,369,368,367,366,366,366,366,366,367,367,367,368,368,368,369,369,369,369,370,370,370,370,371,371,371,371,370,369,368,367,366,364,363,362,361,360,359,0,0,0,0,0,0,825,0,0,0,0,0,0,0,0,0,0,0,0,0,0,0,0,0,0,0,0,0,0,0,0,0,0,0,0,0,0,0,0,0,0,0,406,406,405,404,404,403,403,402,402,401,401
297,297,297,297,298,298,299,0,0,0,0,0,0,0,0,0,0,0,327,328,328,329,330,331,332,332,333,333,334,334,335,335,335,336,337,337,337,337,337,338,338,338,338,338,339,339,339,339,338,337,337,337,336,0,0,0,0,0,0,0,0,0,0,0,0,0,345,347,345,347,348,348,351,353,354,355,358,358,359,360,361,362,362,363,363,364,365,366,367,368,369,370,371,371,371,372,372,372,372,373,373,374,374,375,375,376,376,377,377,377,377,378,378,379,379,380,381,0,381,381,381,381,380,380,379,378,375,374,372,370,0,0,0,0,0,0,0,0,0,0,0,0,0,0,1056,1056,1056,1056,1054,1052,1048,1047,1038,1034,1031,1027,1026,1027,1027,1027,1029,1034,1032,1034,0,0,0,0,0,0,0,0,0,0,0,0,0,0,0,0,0,0,0,0,0,0,0,0,0,0,0,0,0,0,0,0,0,0,0,0,0,362,363,363,364,365,366,366,367,367,368,367,367,367,367,367,368,368,368,368,368,368,368,369,369,370,370,370,370,369,369,368,367,366,365,365,365,365,365,365,366,366,367,367,367,369,369,369,370,370,370,370,371,371,371,372,371,370,369,367,0,364,362,361,361,360,359,359,359,0,0,0,847,847,846,842,0,842,0,0,0,0,0,0,0,0,0,0,0,0,0,0,0,0,0,0,0,0,0,0,0,0,0,0,0,0,0,0,0,406,405,405,404,404,403,402,401,401,401,401
297,297,297,297,297,298,298,300,0,0,0,0,325,326,327,327,328,328,328,329,329,330,330,331,332,332,333,333,333,334,335,335,335,336,336,337,337,337,337,338,338,338,338,339,339,339,339,339,338,0,337,0,0,0,0,0,0,0,0,0,0,0,0,0,0,349,350,350,351,351,352,352,353,355,355,357,358,358,359,360,361,361,362,363,363,364,364,366,367,367,369,369,370,370,371,371,371,371,371,371,372,372,373,373,374,374,374,374,374,375,375,375,376,376,377,378,379,379,380,379,379,378,378,377,375,372,371,370,368,0,364,0,0,0,0,0,0,0,0,0,0,0,0,0,0,1050,1052,1052,1052,1050,1047,1043,1036,1032,1029,1026,1024,1024,1024,1024,1026,1029,1031,1032,1032,0,0,0,0,0,0,0,0,0,0,0,0,0,0,0,0,0,0,0,0,0,0,0,0,0,0,0,0,0,0,0,0,0,0,0,0,0,0,0,364,365,366,366,367,367,367,367,367,367,367,367,367,367,367,367,368,368,368,368,368,369,369,370,369,369,369,368,366,365,364,364,363,363,0,0,363,364,0,365,366,367,368,369,370,370,0,0,0,0,372,0,0,371,369,368,367,0,362,361,361,360,360,359,359,360,0,862,0,862,861,859,856,854,841,0,0,0,0,0,0,0,0,0,0,0,0,0,0,0,0,0,0,0,0,0,0,0,0,0,0,0,0,406,405,405,405,404,403,403,402,401,400,400,400,400
297,297,297,297,298,298,298,0,0,322,323,324,325,326,327,327,328,329,329,329,330,330,331,331,332,332,333,333,333,334,335,335,335,336,336,337,337,337,337,338,338,338,339,339,339,339,339,339,338,0,0,0,0,0,0,0,0,0,0,0,0,0,0,350,350,351,351,352,352,352,353,353,354,355,356,356,358,358,359,360,361,361,362,363,363,364,364,365,366,366,368,368,369,369,370,370,370,370,370,370,370,371,371,372,372,372,370,370,371,371,371,371,371,372,372,373,373,374,375,375,375,374,370,374,363,360,363,354,353,350,350,349,0,0,0,0,0,0,0,0,1036,0,0,0,1045,1047,1047,1048,1048,1047,1043,1043,0,1032,1027,1024,1022,1022,1024,1024,1024,1031,1031,1032,1032,0,0,0,0,0,0,0,0,0,0,0,0,0,0,0,0,0,0,0,0,0,0,0,0,0,0,0,0,0,0,0,0,0,0,0,0,0,363,363,364,365,365,366,366,366,366,366,366,366,366,366,367,367,367,367,367,367,367,367,367,369,369,369,369,369,368,367,366,364,363,363,362,361,361,361,361,361,0,0,364,364,367,0,369,0,0,0,0,0,0,0,0,0,0,368,366,0,362,361,361,361,360,360,868,360,360,867,868,867,866,864,865,861,849,0,0,0,0,0,0,0,0,0,0,0,0,0,0,0,0,0,0,0,0,0,0,0,0,0,0,0,0,406,405,405,404,404,403,402,401,401,400,400,399,399
297,297,297,297,298,298,298,0,0,322,324,324,325,326,327,327,328,328,329,330,330,331,331,332,332,332,333,333,333,333,334,335,335,335,336,337,337,337,338,338,338,338,338,339,339,339,339,340,339,0,0,0,0,0,0,0,0,0,0,0,0,0,0,351,351,352,352,352,353,353,353,353,354,355,356,357,358,358,359,359,360,361,361,361,362,362,363,364,364,365,365,366,367,367,368,368,368,367,367,367,367,368,368,369,369,369,369,369,369,369,369,369,369,369,370,370,371,372,373,0,373,372,0,0,356,0,0,348,347,346,346,345,345,345,0,0,0,0,0,0,0,0,1039,1041,1041,0,0,1047,1047,1045,1043,1041,0,0,1027,1024,1024,1024,1024,1022,1026,1031,1032,1032,0,0,0,0,0,0,0,0,0,0,0,0,0,0,0,0,0,0,0,0,0,0,0,0,0,0,0,0,0,0,0,0,0,0,0,0,0,362,362,363,363,364,365,365,365,366,366,366,366,366,366,366,366,366,366,366,366,366,366,366,366,367,368,368,368,368,367,367,365,364,0,0,361,359,359,357,357,357,357,0,0,0,0,0,0,0,0,0,0,0,0,0,0,0,0,0,0,0,0,0,362,361,361,361,361,361,872,873,873,873,871,867,0,865,857,847,0,0,0,0,0,0,0,0,0,0,0,0,0,0,0,0,0,0,0,0,0,0,0,0,0,0,0,405,404,404,404,403,402,401,401,400,399,399,399,399
297,297,297,297,298,298,299,322,323,323,324,324,325,326,326,327,328,329,329,329,330,331,331,332,332,332,332,0,0,0,0,0,0,336,336,337,337,337,338,338,338,338,338,339,339,339,339,340,0,0,0,0,0,0,0,0,0,0,0,0,0,0,0,0,352,352,353,353,353,355,355,355,355,356,357,357,357,358,359,359,360,360,361,361,362,362,362,363,363,364,364,366,366,366,367,367,367,366,367,366,366,367,367,368,368,368,368,368,368,367,367,367,367,367,368,368,370,0,372,0,0,0,357,353,0,0,346,0,0,343,343,343,343,343,0,0,0,0,0,0,1038,1038,1038,1038,1038,1041,1041,1041,1043,1043,1041,1039,1034,1031,1029,1026,1024,1024,1024,1024,1026,1031,1032,1032,0,0,0,0,0,0,0,0,0,0,0,0,0,0,0,0,0,0,0,0,0,0,0,0,0,0,0,0,0,0,0,0,0,0,353,355,356,357,358,360,361,361,362,363,363,363,364,364,365,365,365,366,366,366,366,366,366,366,366,366,366,367,367,367,367,367,366,0,0,362,361,359,358,0,357,356,356,356,356,356,356,0,0,0,0,0,0,0,0,0,0,0,0,0,0,0,0,0,0,0,362,362,361,361,361,361,876,876,877,876,873,870,0,867,860,0,0,0,0,0,0,0,0,0,0,0,0,0,0,0,0,0,0,0,0,0,0,0,0,0,0,0,0,404,404,403,403,403,401,401,400,399,399,398,398,398
