# .PCD v0.7 - Point Cloud Data file format
VERSION 0.7
FIELDS x y z
SIZE 4 4 4
TYPE F F F
COUNT 1 1 1
WIDTH 1661
HEIGHT 1
VIEWPOINT 0 0 0 1 0 0 0
POINTS 1661
DATA ascii
322.502723 -185.5173943 434
324.7650781 -185.5173943 434
231.0170172 -193.8112051 459
233.4096922 -193.8112051 459
235.2886366 -193.3889585 458
236.6382119 -192.5444652 456
238.4910923 -192.1222186 455
240.3335471 -191.6999719 454
242.1655763 -191.2777253 453
243.9871799 -190.8554787 452
245.7983579 -190.433232 451
247.5991103 -190.0109854 450
249.9448701 -190.0109854 450
251.7299841 -189.5887388 449
253.5046725 -189.1664921 448
255.8400068 -189.1664921 448
258.175341 -189.1664921 448
259.9291782 -188.7442455 447
262.2592996 -188.7442455 447
264.5894211 -188.7442455 447
266.9195425 -188.7442455 447
269.249664 -188.7442455 447
271.5797854 -188.7442455 447
273.9099068 -188.7442455 447
276.2400283 -188.7442455 447
278.5701497 -188.7442455 447
280.2718589 -188.3219989 446
280.6958924 -187.055259 443
281.727487 -186.2107657 441
283.382281 -185.7885191 440
285.0266494 -185.3662724 439
285.3516397 -184.0995325 436
285.6453533 -182.8327926 433
287.2375937 -182.410546 432
288.8194085 -181.9882994 431
291.0661251 -181.9882994 431
293.3128418 -181.9882994 431
295.5595584 -181.9882994 431
297.8062751 -181.9882994 431
300.7491704 -182.410546 432
303.0010998 -182.410546 432
305.2530293 -182.410546 432
308.2167757 -182.8327926 433
310.473918 -182.8327926 433
312.7310602 -182.8327926 433
317.2453447 -182.8327926 433
320.240368 -183.2550393 434
322.502723 -183.2550393 434
242.7001582 -189.3333609 454
243.9871799 -188.4992932 452
245.7983579 -188.0822594 451
247.5991103 -187.6652256 450
249.9448701 -187.6652256 450
251.7299841 -187.2481917 449
253.5046725 -186.8311579 448
255.2689353 -186.4141241 447
257.5990568 -186.4141241 447
259.9291782 -186.4141241 447
262.2592996 -186.4141241 447
264.5894211 -186.4141241 447
266.9195425 -186.4141241 447
269.249664 -186.4141241 447
271.5797854 -186.4141241 447
273.9099068 -186.4141241 447
276.2400283 -186.4141241 447
278.5701497 -186.4141241 447
280.2718589 -185.9970902 446
280.6958924 -184.7459887 443
282.3663248 -184.3289549 442
283.382281 -183.4948872 440
285.0266494 -183.0778534 439
285.3516397 -181.8267519 436
285.6453533 -180.5756504 433
287.2375937 -180.1586165 432
288.8194085 -179.7415827 431
291.0661251 -179.7415827 431
293.3128418 -179.7415827 431
295.5595584 -179.7415827 431
298.4972409 -180.1586165 432
300.7491704 -180.1586165 432
303.0010998 -180.1586165 432
305.9596335 -180.5756504 433
308.9285928 -180.9926842 434
311.1909478 -180.9926842 434
317.978013 -180.9926842 434
320.240368 -180.9926842 434
323.2458169 -181.4097181 435
324.7650781 -180.9926842 434
244.5269745 -186.5549288 453
245.7983579 -185.7312868 451
247.5991103 -185.3194657 450
249.9448701 -185.3194657 450
251.7299841 -184.9076447 449
253.5046725 -184.4958237 448
255.2689353 -184.0840026 447
257.5990568 -184.0840026 447
259.9291782 -184.0840026 447
261.6725898 -183.6721816 446
263.9974984 -183.6721816 446
266.3224071 -183.6721816 446
268.6473157 -183.6721816 446
271.5797854 -184.0840026 447
273.297133 -183.6721816 446
276.2400283 -184.0840026 447
277.9469503 -183.6721816 446
280.2718589 -183.6721816 446
281.3295175 -182.8485395 444
282.3663248 -182.0248974 442
284.0263317 -181.6130764 441
285.0266494 -180.7894343 439
286.006116 -179.9657923 437
286.3050423 -178.7303292 434
287.2375937 -177.9066871 432
288.8194085 -177.4948661 431
291.0661251 -177.4948661 431
293.3128418 -177.4948661 431
296.2453115 -177.9066871 432
298.4972409 -177.9066871 432
301.445349 -178.3185081 433
303.7024912 -178.3185081 433
306.6662377 -178.7303292 434
309.6404098 -179.1421502 435
311.1909478 -178.7303292 434
316.4431133 -179.1421502 435
318.7106812 -179.1421502 435
320.978249 -179.1421502 435
323.2458169 -179.1421502 435
324.7650781 -178.7303292 434
245.0667692 -184.6001388 454
245.7983579 -183.3803141 451
247.5991103 -182.9737059 450
249.9448701 -182.9737059 450
251.7299841 -182.5670977 449
253.5046725 -182.1604894 448
255.2689353 -181.7538812 447
257.5990568 -181.7538812 447
259.3476812 -181.3472729 446
261.6725898 -181.3472729 446
263.4055758 -180.9406647 445
265.7252716 -180.9406647 445
268.0449675 -180.9406647 445
270.3646633 -180.9406647 445
272.6843592 -180.9406647 445
275.004055 -180.9406647 445
277.3237508 -180.9406647 445
279.0150344 -180.5340565 444
280.0622674 -179.72084 442
281.727487 -179.3142318 441
283.382281 -178.9076235 440
285.0266494 -178.5010153 439
286.006116 -177.6877988 437
286.3050423 -176.4679741 434
287.9024955 -176.0613659 433
289.4895231 -175.6547577 432
291.7414526 -175.6547577 432
293.993382 -175.6547577 432
296.2453115 -175.6547577 432
299.1882068 -176.0613659 433
302.1415276 -176.4679741 434
304.4038827 -176.4679741 434
307.372842 -176.8745824 435
309.6404098 -176.8745824 435
311.9079777 -176.8745824 435
316.4431133 -176.8745824 435
319.4433494 -177.2811906 436
321.7161301 -177.2811906 436
323.9889107 -177.2811906 436
229.6205266 -185.0432958 461
232.0236273 -185.0432958 461
234.4267279 -185.0432958 461
236.8298285 -185.0432958 461
238.7139857 -184.6419004 460
240.5877173 -184.240505 459
241.9216543 -183.4377141 457
243.7693218 -183.0363187 456
245.6065638 -182.6349232 455
246.8883728 -181.8321324 453
248.1493305 -181.0293415 451
250.5003032 -181.0293415 451
252.29063 -180.627946 450
253.5046725 -179.8251552 448
255.8400068 -179.8251552 448
257.5990568 -179.4237597 447
259.9291782 -179.4237597 447
261.6725898 -179.0223643 446
263.9974984 -179.0223643 446
265.7252716 -178.6209689 445
268.0449675 -178.6209689 445
270.3646633 -178.6209689 445
272.6843592 -178.6209689 445
275.004055 -178.6209689 445
276.7005514 -178.2195734 444
279.0150344 -178.2195734 444
280.0622674 -177.4167826 442
281.727487 -177.0153871 441
283.382281 -176.6139917 440
284.377386 -175.8112008 438
286.006116 -175.4098054 437
286.3050423 -174.2056191 434
288.5673974 -174.2056191 434
290.1596378 -173.8042236 433
292.41678 -173.8042236 433
294.6739223 -173.8042236 433
297.6168175 -174.2056191 434
299.8791726 -174.2056191 434
302.8377063 -174.6070145 435
305.1052741 -174.6070145 435
308.0794462 -175.00841 436
310.3522268 -175.00841 436
314.8977881 -175.00841 436
230.1186189 -183.0363778 462
232.0236273 -182.6401952 461
234.4267279 -182.6401952 461
236.8298285 -182.6401952 461
238.7139857 -182.2440126 460
240.5877173 -181.8478299 459
242.9803923 -181.8478299 459
244.3039037 -181.0554647 457
246.6861531 -181.0554647 457
247.9783877 -180.2630994 455
249.7999913 -179.8669168 454
251.6111693 -179.4707341 453
253.4119217 -179.0745515 452
254.6363898 -178.2821862 450
256.4110782 -177.8860036 449
258.175341 -177.4898209 448
259.9291782 -177.0936383 447
261.6725898 -176.6974557 446
263.4055758 -176.301273 445
265.7252716 -176.301273 445
268.0449675 -176.301273 445
270.3646633 -176.301273 445
272.0715853 -175.9050904 444
274.3860684 -175.9050904 444
276.077352 -175.5089078 443
278.3866222 -175.5089078 443
280.0622674 -175.1127251 442
281.0886492 -174.3203598 440
282.7382304 -173.9241772 439
284.377386 -173.5279946 438
286.006116 -173.1318119 437
286.3050423 -171.943264 434
288.5673974 -171.943264 434
290.8297524 -171.943264 434
293.0921075 -171.943264 434
295.3544625 -171.943264 434
297.6168175 -171.943264 434
300.5701384 -172.3394467 435
302.8377063 -172.3394467 435
305.1052741 -172.3394467 435
308.0794462 -172.7356293 436
310.3522268 -172.7356293 436
314.8977881 -172.7356293 436
317.1705688 -172.7356293 436
230.1186189 -180.6280644 462
232.5269323 -180.6280644 462
234.4267279 -180.2370946 461
236.8298285 -180.2370946 461
238.7139857 -179.8461247 460
241.1118736 -179.8461247 460
242.9803923 -179.4551549 459
244.8384855 -179.0641851 458
246.6861531 -178.6732152 457
248.5233951 -178.2822454 456
250.3502115 -177.8912756 455
252.1666023 -177.5003057 454
253.9725675 -177.1093359 453
254.6363898 -175.9364264 450
256.4110782 -175.5454565 449
258.175341 -175.1544867 448
260.5106752 -175.1544867 448
262.2592996 -174.7635169 447
263.9974984 -174.372547 446
265.7252716 -173.9815772 445
268.0449675 -173.9815772 445
270.3646633 -173.9815772 445
272.0715853 -173.5906074 444
273.7680817 -173.1996375 443
276.077352 -173.1996375 443
277.75821 -172.8086677 442
279.4286424 -172.4176978 441
281.0886492 -172.026728 440
282.7382304 -171.6357582 439
284.377386 -171.2447883 438
286.006116 -170.8538185 437
286.9647314 -170.0718788 435
289.2322992 -170.0718788 435
291.499867 -170.0718788 435
293.7674349 -170.0718788 435
296.0350027 -170.0718788 435
298.3025706 -170.0718788 435
300.5701384 -170.0718788 435
303.5338849 -170.4628487 436
305.8066656 -170.4628487 436
308.7860504 -170.8538185 437
311.0640439 -170.8538185 437
313.3420373 -170.8538185 437
314.8977881 -170.4628487 436
317.8980242 -170.8538185 437
320.1760177 -170.8538185 437
232.5269323 -178.219751 462
234.9352457 -178.219751 462
236.8298285 -177.8339939 461
239.2329292 -177.8339939 461
241.1118736 -177.4482369 460
243.5097614 -177.4482369 460
245.3730674 -177.0624799 459
247.2259478 -176.6767228 458
249.0684026 -176.2909658 457
250.9004318 -175.9052088 456
252.7220353 -175.5194517 455
254.5332133 -175.1336947 454
255.2022484 -173.9764236 451
256.9821496 -173.5906665 450
258.7516252 -173.2049095 449
260.5106752 -172.8191525 448
262.2592996 -172.4333954 447
263.9974984 -172.0476384 446
265.7252716 -171.6618813 445
268.0449675 -171.6618813 445
269.7571023 -171.2761243 444
271.4588115 -170.8903673 443
273.7680817 -170.8903673 443
275.4541525 -170.5046102 442
277.1297977 -170.1188532 441
278.7950173 -169.7330962 440
280.4498113 -169.3473391 439
282.7382304 -169.3473391 439
284.377386 -168.9615821 438
286.006116 -168.5758251 437
287.6244204 -168.190068 436
289.897201 -168.190068 436
292.1699817 -168.190068 436
294.4427623 -168.190068 436
296.715543 -168.190068 436
298.9883236 -168.190068 436
301.2611043 -168.190068 436
304.2300635 -168.5758251 437
306.508057 -168.5758251 437
308.7860504 -168.5758251 437
311.0640439 -168.5758251 437
313.3420373 -168.5758251 437
316.3422734 -168.9615821 438
229.1889438 -176.9530702 465
230.1186189 -175.8114375 462
232.5269323 -175.8114375 462
234.9352457 -175.8114375 462
237.3435592 -175.8114375 462
239.2329292 -175.4308933 461
241.6360298 -175.4308933 461
243.5097614 -175.0503491 460
245.9076492 -175.0503491 460
247.2259478 -174.2892606 458
249.61341 -174.2892606 458
251.450652 -173.9087164 457
253.2774684 -173.5281721 456
255.0938592 -173.1476279 455
255.7681071 -172.0059952 452
257.5532211 -171.6254509 451
259.3279095 -171.2449067 450
261.0921723 -170.8643625 449
262.8460095 -170.4838182 448
264.5894211 -170.103274 447
266.3224071 -169.7227297 446
268.0449675 -169.3421855 445
269.7571023 -168.9616413 444
271.4588115 -168.581097 443
273.7680817 -168.581097 443
275.4541525 -168.2005528 442
277.1297977 -167.8200086 441
279.4286424 -167.8200086 441
281.0886492 -167.4394643 440
283.382281 -167.4394643 440
285.0266494 -167.0589201 439
287.3150685 -167.0589201 439
289.6034875 -167.0589201 439
291.8919066 -167.0589201 439
294.1803256 -167.0589201 439
303.3340018 -167.0589201 439
305.6224208 -167.0589201 439
307.2094484 -166.6783758 438
309.4926547 -166.6783758 438
230.1747027 -175.2797813 467
230.1186189 -173.4031241 462
232.5269323 -173.4031241 462
234.9352457 -173.4031241 462
237.3435592 -173.4031241 462
239.7518726 -173.4031241 462
242.160186 -173.4031241 462
244.0391304 -173.0277927 461
246.4422311 -173.0277927 461
248.3055371 -172.6524612 460
250.1584175 -172.2771298 459
252.0008722 -171.9017984 458
253.8329014 -171.5264669 457
255.654505 -171.1511355 456
256.3339657 -170.0251412 453
257.5532211 -169.2744783 451
259.3279095 -168.8991469 450
261.6736693 -168.8991469 450
263.4327193 -168.5238154 449
264.5894211 -167.7731525 447
266.3224071 -167.3978211 446
268.0449675 -167.0224897 445
270.3646633 -167.0224897 445
272.0715853 -166.6471582 444
273.7680817 -166.2718268 443
275.4541525 -165.8964954 442
277.75821 -165.8964954 442
279.4286424 -165.5211639 441
281.0886492 -165.1458325 440
283.382281 -165.1458325 440
285.6759129 -165.1458325 440
287.9695447 -165.1458325 440
290.2631765 -165.1458325 440
292.5568084 -165.1458325 440
294.8504402 -165.1458325 440
297.1440721 -165.1458325 440
299.4377039 -165.1458325 440
301.7313358 -165.1458325 440
304.0249676 -165.1458325 440
306.3185994 -165.1458325 440
307.9108399 -164.770501 439
310.1992589 -164.770501 439
312.4876779 -164.770501 439
314.776097 -164.770501 439
317.7867587 -165.1458325 440
230.6675821 -173.2155225 468
230.6167111 -171.3649293 463
233.0302374 -171.3649293 463
235.4437636 -171.3649293 463
237.8572898 -171.3649293 463
239.7518726 -170.9948107 462
242.160186 -170.9948107 462
244.5684995 -170.9948107 462
246.4422311 -170.624692 461
248.3055371 -170.2545734 460
250.1584175 -169.8844548 459
252.5510925 -169.8844548 459
253.8329014 -169.1442175 457
255.654505 -168.7740988 456
256.8998244 -168.0338616 454
258.1242925 -167.2936243 452
259.9041937 -166.9235056 451
261.6736693 -166.553387 450
263.4327193 -166.1832684 449
264.5894211 -165.4430311 447
266.3224071 -165.0729125 446
268.6473157 -165.0729125 446
270.3646633 -164.7027938 445
272.0715853 -164.3326752 444
273.7680817 -163.9625565 443
275.4541525 -163.5924379 442
277.75821 -163.5924379 442
279.4286424 -163.2223193 441
281.0886492 -162.8522006 440
283.382281 -162.8522006 440
285.6759129 -162.8522006 440
287.9695447 -162.8522006 440
290.2631765 -162.8522006 440
292.5568084 -162.8522006 440
294.8504402 -162.8522006 440
299.4377039 -162.8522006 440
301.7313358 -162.8522006 440
304.0249676 -162.8522006 440
306.3185994 -162.8522006 440
308.6122313 -162.8522006 440
231.1604616 -171.1408381 469
230.6167111 -168.9514031 463
233.0302374 -168.9514031 463
235.4437636 -168.9514031 463
237.8572898 -168.9514031 463
239.7518726 -168.5864972 462
242.160186 -168.5864972 462
244.5684995 -168.5864972 462
246.4422311 -168.2215914 461
248.8453317 -168.2215914 461
250.7034249 -167.8566856 460
252.5510925 -167.4917797 459
254.3883345 -167.1268739 458
256.2151509 -166.761968 457
256.8998244 -165.6672505 454
258.695364 -165.3023447 453
259.9041937 -164.572533 451
261.6736693 -164.2076272 450
263.4327193 -163.8427213 449
264.5894211 -163.1129097 447
266.3224071 -162.7480038 446
268.6473157 -162.7480038 446
270.3646633 -162.383098 445
272.0715853 -162.0181921 444
273.7680817 -161.6532863 443
275.4541525 -161.2883805 442
277.1297977 -160.9234746 441
279.4286424 -160.9234746 441
281.0886492 -160.5585688 440
283.382281 -160.5585688 440
285.6759129 -160.5585688 440
287.3150685 -160.193663 439
289.6034875 -160.193663 439
292.5568084 -160.5585688 440
294.8504402 -160.5585688 440
297.1440721 -160.5585688 440
298.7571637 -160.193663 439
301.0455827 -160.193663 439
303.3340018 -160.193663 439
305.6224208 -160.193663 439
307.9108399 -160.193663 439
319.9534866 -161.6532863 443
235.2798377 -177.328668 493
230.6167111 -166.5378768 463
233.0302374 -166.5378768 463
235.4437636 -166.5378768 463
237.8572898 -166.5378768 463
240.2708161 -166.5378768 463
242.160186 -166.1781838 462
244.5684995 -166.1781838 462
246.9768129 -166.1781838 462
248.8453317 -165.8184908 461
250.7034249 -165.4587977 460
252.5510925 -165.0991047 459
254.3883345 -164.7394116 458
256.2151509 -164.3797186 457
256.8998244 -163.3006395 454
258.695364 -162.9409464 453
260.480478 -162.5812534 452
261.6736693 -161.8618673 450
264.0194292 -161.8618673 450
265.1813437 -161.1424813 448
266.9195425 -160.7827882 447
268.6473157 -160.4230952 446
270.3646633 -160.0634021 445
271.4588115 -159.3440161 443
273.7680817 -159.3440161 443
275.4541525 -158.984323 442
277.75821 -158.984323 442
279.4286424 -158.62463 441
281.727487 -158.62463 441
284.0263317 -158.62463 441
285.6759129 -158.2649369 440
287.9695447 -158.2649369 440
290.2631765 -158.2649369 440
292.5568084 -158.2649369 440
294.8504402 -158.2649369 440
297.1440721 -158.2649369 440
298.7571637 -157.9052439 439
301.7313358 -158.2649369 440
304.0249676 -158.2649369 440
306.3185994 -158.2649369 440
308.6122313 -158.2649369 440
314.623129 -158.984323 442
318.3612462 -159.7037091 444
321.3979718 -160.0634021 445
238.143284 -176.8856392 499
241.308703 -164.8333111 465
243.2084985 -164.4788308 464
245.0978685 -164.1243506 463
246.9768129 -163.7698704 462
249.3851264 -163.7698704 462
251.2484323 -163.4153901 461
253.1013127 -163.0609099 460
254.9437675 -162.7064296 459
256.2151509 -161.9974692 457
256.8998244 -160.9340284 454
258.695364 -160.5795482 453
259.9041937 -159.8705877 451
261.6736693 -159.5161075 450
263.4327193 -159.1616273 449
264.5894211 -158.4526668 447
266.3224071 -158.0981865 446
268.6473157 -158.0981865 446
270.3646633 -157.7437063 445
271.4588115 -157.0347458 443
273.7680817 -157.0347458 443
275.4541525 -156.6802656 442
277.75821 -156.6802656 442
279.4286424 -156.3257853 441
281.727487 -156.3257853 441
284.0263317 -156.3257853 441
292.5568084 -155.9713051 440
294.8504402 -155.9713051 440
298.7571637 -155.6168249 439
301.7313358 -155.9713051 440
304.0249676 -155.9713051 440
306.3185994 -155.9713051 440
309.3136227 -156.3257853 441
319.078276 -157.7437063 445
239.0977661 -174.9829871 501
249.3851264 -161.3615569 462
251.2484323 -161.0122895 461
254.9437675 -160.3137546 459
258.695364 -158.21815 453
259.9041937 -157.5196151 451
264.5894211 -156.1225453 447
271.4588115 -154.7254756 443
273.7680817 -154.7254756 443
275.4541525 -154.3762081 442
277.75821 -154.3762081 442
280.0622674 -154.3762081 442
281.727487 -154.0269407 441
287.9695447 -153.6776733 440
290.2631765 -153.6776733 440
292.5568084 -153.6776733 440
294.8504402 -153.6776733 440
297.1440721 -153.6776733 440
299.4377039 -153.6776733 440
304.0249676 -153.6776733 440
307.0147781 -154.0269407 441
320.5123357 -156.1225453 447
240.0522482 -173.0594837 503
262.8460095 -154.1364785 448
264.5894211 -153.7924239 447
266.3224071 -153.4483693 446
268.0449675 -153.1043146 445
270.3646633 -153.1043146 445
272.6843592 -153.1043146 445
276.7005514 -152.76026 444
278.3866222 -152.4162053 443
280.6958924 -152.4162053 443
288.6240209 -151.7280961 441
290.9228656 -151.7280961 441
293.2217102 -151.7280961 441
295.5205549 -151.7280961 441
303.1028418 -152.0721507 442
305.4068993 -152.0721507 442
307.7109567 -152.0721507 442
311.417797 -152.76026 444
317.4703972 -153.4483693 446
321.2293655 -154.1364785 448
239.0977661 -169.7597618 501
243.8333247 -169.42092 500
245.946845 -169.0820781 499
246.5556631 -167.7267108 495
245.6128636 -165.3548179 488
250.1907812 -166.7101853 492
263.4327193 -152.1399861 449
265.1813437 -151.8011443 448
266.9195425 -151.4623025 447
269.249664 -151.4623025 447
271.5797854 -151.4623025 447
273.9099068 -151.4623025 447
276.2400283 -151.4623025 447
278.5701497 -151.4623025 447
280.9002712 -151.4623025 447
283.2303926 -151.4623025 447
284.9216762 -151.1234606 446
287.2465848 -151.1234606 446
288.2729666 -150.4457769 444
294.5515139 -150.1069351 443
296.8607841 -150.1069351 443
299.1700544 -150.1069351 443
301.4793246 -150.1069351 443
304.4743479 -150.4457769 444
307.4797968 -150.7846188 445
321.9463953 -152.1399861 449
238.143284 -166.4808911 499
242.8579914 -166.1472621 498
244.9610862 -165.813633 497
246.5556631 -165.1463749 495
249.1359989 -165.1463749 495
251.7163347 -165.1463749 495
266.365189 -150.1330681 450
273.4024685 -150.1330681 450
275.7482284 -150.1330681 450
278.0939882 -150.1330681 450
280.439748 -150.1330681 450
282.7855079 -150.1330681 450
286.8381897 -149.7994391 449
289.1787368 -149.7994391 449
290.8700204 -149.4658101 448
295.8813176 -148.4649229 445
298.2010134 -148.4649229 445
302.8404051 -148.4649229 445
305.845854 -148.798552 446
308.8617285 -149.132181 447
311.1918499 -149.132181 447
321.9463953 -149.7994391 449
235.542097 -163.8797041 499
237.6660429 -163.5512878 498
242.3703247 -163.2228716 497
243.9753273 -162.5660391 495
246.0575708 -162.2376229 494
248.6326939 -162.2376229 494
268.1409569 -148.772557 453
270.5023552 -148.772557 453
272.2614052 -148.4441408 452
274.6175906 -148.4441408 452
276.973776 -148.4441408 452
279.3299615 -148.4441408 452
281.6861469 -148.4441408 452
284.0423324 -148.4441408 452
286.3985178 -148.4441408 452
288.7547032 -148.4441408 452
290.466838 -148.1157245 451
292.1685472 -147.7873083 450
297.8760231 -147.1304758 448
300.2113573 -147.1304758 448
301.8713641 -146.8020596 447
304.2014856 -146.8020596 447
306.531607 -146.8020596 447
309.5526943 -147.1304758 448
311.8880285 -147.1304758 448
316.558697 -147.1304758 448
318.8940313 -147.1304758 448
234.5980405 -160.6321102 497
237.1888019 -160.6321102 497
241.3949914 -159.9857033 495
243.9753273 -159.9857033 495
245.5594786 -159.3392964 493
248.1293888 -159.3392964 493
268.1263981 -147.7039725 457
271.6966261 -147.0575657 455
273.4661016 -146.7343622 454
275.2251516 -146.4111588 453
278.1993237 -146.7343622 454
280.5659348 -146.7343622 454
282.9325458 -146.7343622 454
285.2991568 -146.7343622 454
287.6657679 -146.7343622 454
290.0323789 -146.7343622 454
292.39899 -146.7343622 454
293.4670741 -146.0879553 452
295.1687833 -145.7647519 451
298.179445 -146.0879553 452
299.2058268 -145.4415485 450
301.5515866 -145.4415485 450
302.5466916 -144.7951416 448
305.562566 -145.118345 449
307.9031131 -145.118345 449
310.2436601 -145.118345 449
312.5842072 -145.118345 449
319.6058483 -145.118345 449
233.653984 -157.4053675 495
236.2343198 -157.4053675 495
238.3322018 -157.0873768 494
240.4196581 -156.7693862 493
242.9895684 -156.7693862 493
245.0613863 -156.4513956 492
247.6260838 -156.4513956 492
250.1907812 -156.4513956 492
263.2639355 -146.5936857 461
264.5144677 -145.9577044 459
266.3256457 -145.6397137 458
269.2998177 -145.9577044 459
271.6924928 -145.9577044 459
273.4880324 -145.6397137 458
275.8754946 -145.6397137 458
277.6553958 -145.3217231 457
280.0376452 -145.3217231 457
282.4198947 -145.3217231 457
284.8021441 -145.3217231 457
286.5559813 -145.0037325 456
289.566643 -145.3217231 457
291.9488924 -145.3217231 457
293.6870912 -145.0037325 456
295.4148644 -144.6857418 455
297.132212 -144.3677512 454
299.4988231 -144.3677512 454
301.8654341 -144.3677512 454
303.5619305 -144.0497605 453
304.5726739 -143.4137793 451
306.9236465 -143.4137793 451
309.2746192 -143.4137793 451
311.6255918 -143.4137793 451
313.2803858 -143.0957886 450
233.653984 -154.8250317 495
235.2798377 -154.199476 493
237.8497479 -154.199476 493
240.4196581 -154.199476 493
242.4966889 -153.8866981 492
244.5632941 -153.5739203 491
247.1227787 -153.5739203 491
250.1907812 -153.8866981 492
252.241748 -153.5739203 491
254.8012326 -153.5739203 491
265.6670362 -144.190585 461
268.0701368 -144.190585 461
269.8865276 -143.8778072 460
271.6924928 -143.5650293 459
274.0851678 -143.5650293 459
276.4778429 -143.5650293 459
278.2629569 -143.2522515 458
280.6504191 -143.2522515 458
283.0378813 -143.2522515 458
285.4253436 -143.2522515 458
287.8128058 -143.2522515 458
290.200268 -143.2522515 458
292.5877303 -143.2522515 458
294.9751925 -143.2522515 458
296.0641279 -142.6266958 456
298.4411645 -142.6266958 456
300.1585121 -142.313918 455
302.5303359 -142.313918 455
304.9021598 -142.313918 455
305.9233287 -141.6883623 453
307.6041868 -141.3755845 452
309.9603722 -141.3755845 452
312.3165576 -141.3755845 452
313.9765644 -141.0628066 451
317.2653012 -140.4372509 449
319.6058483 -140.4372509 449
321.9463953 -140.4372509 449
233.1819557 -151.9371308 494
235.2798377 -151.6295657 493
237.3672941 -151.3220007 492
239.9319915 -151.3220007 492
242.4966889 -151.3220007 492
244.5632941 -151.0144357 491
247.1227787 -151.0144357 491
249.6822633 -151.0144357 491
252.241748 -151.0144357 491
254.2822891 -150.7068706 490
263.835007 -142.0950494 462
265.6670362 -141.7874844 461
268.0701368 -141.7874844 461
269.8865276 -141.4799194 460
272.2844154 -141.4799194 460
274.6823033 -141.4799194 460
277.0801911 -141.4799194 460
278.8705179 -141.1723543 459
281.2631929 -141.1723543 459
283.655868 -141.1723543 459
286.048543 -141.1723543 459
288.441218 -141.1723543 459
290.8338931 -141.1723543 459
293.2265681 -141.1723543 459
294.9751925 -140.8647893 458
296.7133913 -140.5572242 457
299.0956407 -140.5572242 457
301.4778902 -140.5572242 457
303.1952378 -140.2496592 456
305.5722744 -140.2496592 456
306.5986562 -139.6345291 454
308.9652672 -139.6345291 454
311.3318783 -139.6345291 454
313.0075235 -139.3269641 453
313.9765644 -138.711834 451
317.2653012 -138.0967039 449
319.6058483 -138.0967039 449
321.9463953 -138.0967039 449
232.007279 -150.2690645 497
233.653984 -149.66436 495
235.2798377 -149.0596555 493
237.3672941 -148.7573033 492
239.4443248 -148.454951 491
242.0038095 -148.454951 491
244.0652018 -148.1525988 490
246.6194737 -148.1525988 490
249.1737455 -148.1525988 490
251.7280173 -148.1525988 490
253.7633457 -147.8502465 489
266.2433204 -139.686736 462
268.0701368 -139.3843838 461
270.4732374 -139.3843838 461
272.8763381 -139.3843838 461
275.2794387 -139.3843838 461
277.6825393 -139.3843838 461
279.4780789 -139.0820315 460
281.8759668 -139.0820315 460
284.2738546 -139.0820315 460
286.6717424 -139.0820315 460
289.0696303 -139.0820315 460
291.4675181 -139.0820315 460
293.2265681 -138.7796793 459
295.6192431 -138.7796793 459
298.0119182 -138.7796793 459
299.750117 -138.477327 458
302.1375792 -138.477327 458
304.5250415 -138.477327 458
306.2423891 -138.1749748 457
307.9493111 -137.8726225 456
309.6458075 -137.5702703 455
312.0176313 -137.5702703 455
313.6984893 -137.2679181 454
314.6727431 -136.6632136 452
316.3275371 -136.3608613 451
317.9719055 -136.0585091 450
232.9409099 -148.272582 499
234.1260122 -147.3811636 496
235.2798377 -146.4897453 493
236.8848402 -145.8954664 491
238.9566582 -145.598327 490
241.0180506 -145.3011875 489
243.5671096 -145.3011875 489
246.1161686 -145.3011875 489
248.1567098 -145.0040481 488
250.1868254 -144.7069086 487
252.7254588 -144.7069086 487
254.739936 -144.4097692 486
255.1558804 -143.2212114 482
258.8785366 -141.1412353 475
260.2541759 -140.5469564 473
261.6089641 -139.9526776 471
266.2433204 -137.2784226 462
268.6516338 -137.2784226 462
270.4732374 -136.9812831 461
273.4682607 -137.2784226 462
275.8765741 -137.2784226 462
278.2848876 -137.2784226 462
280.693201 -137.2784226 462
283.1015145 -137.2784226 462
285.5098279 -137.2784226 462
287.9181413 -137.2784226 462
289.6980425 -136.9812831 461
292.1011432 -136.9812831 461
294.5042438 -136.9812831 461
296.9073444 -136.9812831 461
299.3104451 -136.9812831 461
301.0590695 -136.6841437 460
303.4569573 -136.6841437 460
305.8548451 -136.6841437 460
307.5826183 -136.3870042 459
309.2999659 -136.0898648 458
311.0068879 -135.7927254 457
313.3891374 -135.7927254 457
315.3689217 -134.6041676 453
316.3275371 -134.0098887 451
317.9719055 -133.7127493 450
320.3176653 -133.7127493 450
234.5980405 -145.0875416 497
235.7570787 -144.2117617 494
236.8848402 -143.3359818 491
238.4689915 -142.7521285 489
241.0180506 -142.7521285 489
243.0690173 -142.4602019 488
245.1095585 -142.1682752 487
247.6481919 -142.1682752 487
249.6730947 -141.8763486 486
252.2065153 -141.8763486 486
253.6916235 -141.2924953 484
254.6265114 -140.4167154 481
255.5301225 -139.5409354 478
256.9422514 -138.9570821 476
258.3335291 -138.3732289 474
260.2541759 -138.0813022 473
261.6089641 -137.4974489 471
262.942901 -136.9135956 469
265.5482213 -135.7458891 465
267.3958889 -135.4539624 464
269.2331309 -135.1620358 463
271.0599473 -134.8701091 462
273.4682607 -134.8701091 462
275.8765741 -134.8701091 462
278.2848876 -134.8701091 462
280.693201 -134.8701091 462
283.1015145 -134.8701091 462
285.5098279 -134.8701091 462
287.9181413 -134.8701091 462
290.3264548 -134.8701091 462
292.7347682 -134.8701091 462
295.1430816 -134.8701091 462
296.9073444 -134.5781825 461
299.3104451 -134.5781825 461
301.7135457 -134.5781825 461
304.1166463 -134.5781825 461
305.8548451 -134.2862558 460
308.252733 -134.2862558 460
309.9752934 -133.9943292 459
311.6874282 -133.7024026 458
314.0748904 -133.7024026 458
316.0651003 -132.534696 454
317.0289285 -131.9508427 452
317.9719055 -131.3669894 450
234.0325441 -145.3639187 507
234.3413563 -143.9303494 502
236.8848402 -140.7764972 491
238.4689915 -140.2030695 489
240.0322917 -139.6296418 487
242.5709251 -139.6296418 487
245.1095585 -139.6296418 487
246.6311562 -139.0562141 485
249.1593641 -139.0562141 485
251.1686285 -138.7695003 484
253.1674672 -138.4827864 483
254.6265114 -137.9093587 481
256.0647043 -137.335931 479
256.4024568 -136.1890757 475
258.3335291 -135.9023618 474
259.7039557 -135.3289341 472
261.6089641 -135.0422203 471
262.3822552 -134.1820788 468
266.1192927 -133.6086511 466
267.9721731 -133.3219372 465
269.8146279 -133.0352234 464
271.6466571 -132.7485095 463
274.0601834 -132.7485095 463
276.4737096 -132.7485095 463
278.8872358 -132.7485095 463
281.3007621 -132.7485095 463
283.7142883 -132.7485095 463
286.1278145 -132.7485095 463
288.5413408 -132.7485095 463
290.3264548 -132.4617957 462
292.7347682 -132.4617957 462
295.1430816 -132.4617957 462
297.5513951 -132.4617957 462
299.9597085 -132.4617957 462
302.3680219 -132.4617957 462
304.7763354 -132.4617957 462
306.519747 -132.1750819 461
308.9228476 -132.1750819 461
310.6506208 -131.888368 460
312.3679684 -131.6016542 459
314.0748904 -131.3149403 458
316.761279 -130.4547988 455
320.3176653 -129.0212296 450
234.9557494 -143.2840313 509
235.2749872 -141.8765261 504
237.8497479 -138.7800146 493
237.4936582 -137.0910084 487
240.0322917 -137.0910084 487
242.0728328 -136.8095073 486
244.1029484 -136.5280063 485
246.1226384 -136.2465052 484
248.6456334 -136.2465052 484
250.1307416 -135.6835031 482
252.1191547 -135.4020021 481
254.0971423 -135.1205011 480
254.9955406 -134.2759979 477
256.4024568 -133.7129958 475
258.3335291 -133.4314948 474
260.2541759 -133.1499937 473
261.6089641 -132.5869917 471
262.942901 -132.0239896 469
264.8218454 -131.7424885 468
268.5484574 -131.1794864 466
270.396125 -130.8979854 465
272.233367 -130.6164843 464
274.652106 -130.6164843 464
277.070845 -130.6164843 464
279.4895841 -130.6164843 464
281.9083231 -130.6164843 464
284.3270621 -130.6164843 464
286.7458012 -130.6164843 464
289.1645402 -130.6164843 464
290.954867 -130.3349833 463
293.3683932 -130.3349833 463
295.7819195 -130.3349833 463
298.1954457 -130.3349833 463
299.9597085 -130.0534823 462
302.3680219 -130.0534823 462
304.7763354 -130.0534823 462
307.1846488 -130.0534823 462
308.9228476 -129.7719812 461
311.3259482 -129.7719812 461
313.0485086 -129.4904802 460
314.7606434 -129.2089791 459
316.761279 -128.082975 455
317.7303199 -127.5199729 453
235.8789547 -141.1832928 511
236.6754335 -140.0781398 507
238.3322018 -136.4863926 494
236.5183249 -133.9997984 485
238.5536533 -133.7235102 484
241.0766483 -133.7235102 484
243.0963383 -133.447222 483
245.1056027 -133.1709337 482
247.1044415 -132.8946455 481
249.0928547 -132.6183572 480
251.0708422 -132.342069 479
253.0384042 -132.0657807 478
253.9263769 -131.236916 475
256.4024568 -131.236916 475
257.7885217 -130.6843395 473
259.7039557 -130.4080513 472
261.6089641 -130.131763 471
262.942901 -129.5791865 469
264.8218454 -129.3028983 468
267.2614356 -129.3028983 468
269.1247416 -129.02661 467
270.396125 -128.4740336 465
272.8200768 -128.4740336 465
275.8359513 -128.7503218 466
278.2651159 -128.7503218 466
280.6942805 -128.7503218 466
283.1234452 -128.7503218 466
285.5526098 -128.7503218 466
287.3637878 -128.4740336 465
289.7877396 -128.4740336 465
292.2116915 -128.4740336 465
294.6356433 -128.4740336 465
296.4207573 -128.1977453 464
298.8394963 -128.1977453 464
301.2582354 -128.1977453 464
303.0224982 -127.9214571 463
305.4360244 -127.9214571 463
307.8495506 -127.9214571 463
310.2630769 -127.9214571 463
312.0012757 -127.6451688 462
314.4095891 -127.6451688 462
236.8663329 -140.6881557 519
238.186968 -139.8749294 516
239.0095108 -138.7906276 512
236.0306583 -131.2005152 484
238.0607739 -130.9294397 483
240.5785561 -130.9294397 483
242.5930333 -130.6583643 482
244.5970849 -130.3872888 481
246.5907108 -130.1162134 480
248.5739112 -129.8451379 479
250.546686 -129.5740625 478
252.5090352 -129.3029871 477
253.9263769 -128.7608362 475
255.8626621 -128.4897607 474
257.7885217 -128.2186853 473
259.7039557 -127.9476098 472
262.1643971 -127.9476098 472
263.5035469 -127.4054589 470
265.387704 -127.1343835 469
267.8325071 -127.1343835 469
269.7010259 -126.8633081 468
271.5591191 -126.5922326 467
273.9934965 -126.5922326 467
276.4278739 -126.5922326 467
278.8622514 -126.5922326 467
281.2966288 -126.5922326 467
283.7310062 -126.5922326 467
285.5526098 -126.3211572 466
287.9817745 -126.3211572 466
290.4109391 -126.3211572 466
292.8401037 -126.3211572 466
294.6356433 -126.0500817 465
297.0595951 -126.0500817 465
299.483547 -126.0500817 465
301.2582354 -125.7790063 464
303.6769744 -125.7790063 464
306.0957134 -125.7790063 464
308.5144525 -125.7790063 464
310.2630769 -125.5079308 463
312.6766031 -125.5079308 463
315.0901294 -125.5079308 463
239.1101733 -137.7168501 518
239.9431417 -136.6533995 514
235.5429916 -128.4116575 483
237.5678944 -128.1457949 482
240.0804638 -128.1457949 482
242.0897282 -127.8799322 481
244.5970849 -127.8799322 481
246.0769802 -127.3482069 479
248.0549678 -127.0823443 478
250.546686 -127.0823443 478
252.5090352 -126.8164816 477
253.9263769 -126.2847563 475
255.8626621 -126.0188937 474
257.7885217 -125.753031 473
260.2541759 -125.753031 473
262.1643971 -125.4871684 472
264.0641927 -125.2213058 471
266.5194213 -125.2213058 471
268.4035785 -124.9554431 470
270.2773101 -124.6895805 469
272.1406161 -124.4237178 468
274.5802063 -124.4237178 468
277.0197966 -124.4237178 468
279.4593868 -124.4237178 468
281.898977 -124.4237178 468
284.3385673 -124.4237178 468
286.1653837 -124.1578552 467
288.5997611 -124.1578552 467
291.0341385 -124.1578552 467
292.8401037 -123.8919925 466
295.2692684 -123.8919925 466
297.698433 -123.8919925 466
299.483547 -123.6261299 465
301.9074988 -123.6261299 465
304.3314507 -123.6261299 465
306.7554025 -123.6261299 465
309.1793543 -123.6261299 465
310.9331915 -123.3602672 464
313.3519306 -123.3602672 464
315.7706696 -123.3602672 464
320.6081477 -123.3602672 464
323.0268867 -123.3602672 464
238.2355025 -136.0592192 522
240.0333786 -135.5379195 520
237.5678944 -125.6332254 482
240.0804638 -125.6332254 482
242.0897282 -125.3725756 481
244.088567 -125.1119257 480
246.0769802 -124.8512759 479
248.0549678 -124.590626 478
250.0225298 -124.3299762 477
251.9796661 -124.0693264 476
253.9263769 -123.8086765 475
255.8626621 -123.5480267 474
257.7885217 -123.2873768 473
260.2541759 -123.2873768 473
262.7198302 -123.2873768 473
264.0641927 -122.7660771 471
266.5194213 -122.7660771 471
268.97465 -122.7660771 471
270.8535944 -122.5054273 470
272.7221131 -122.2447774 469
275.1669162 -122.2447774 469
277.6117192 -122.2447774 469
280.0565222 -122.2447774 469
281.898977 -121.9841276 468
284.3385673 -121.9841276 468
286.7781575 -121.9841276 468
289.2177477 -121.9841276 468
291.0341385 -121.7234777 467
293.468516 -121.7234777 467
295.2692684 -121.4628279 466
297.698433 -121.4628279 466
300.1275976 -121.4628279 466
301.9074988 -121.2021781 465
304.3314507 -121.2021781 465
307.4150915 -121.4628279 466
309.8442562 -121.4628279 466
311.6033062 -121.2021781 465
314.027258 -121.2021781 465
317.1317501 -121.4628279 466
318.8751617 -121.2021781 465
321.9900793 -121.4628279 466
324.419244 -121.4628279 466
326.8484086 -121.4628279 466
238.6918923 -133.5935749 523
240.4949812 -133.0827008 521
241.8104035 -132.3163896 518
237.075015 -122.865219 481
239.5823716 -122.865219 481
242.0897282 -122.865219 481
244.088567 -122.6097819 480
246.0769802 -122.3543449 479
248.0549678 -122.0989078 478
250.0225298 -121.8434708 477
251.9796661 -121.5880337 476
253.9263769 -121.3325967 475
255.8626621 -121.0771596 474
258.3335291 -121.0771596 474
260.2541759 -120.8217226 473
262.7198302 -120.8217226 473
264.6248385 -120.5662855 472
267.08528 -120.5662855 472
268.97465 -120.3108485 471
271.4298786 -120.3108485 471
273.8851072 -120.3108485 471
275.753626 -120.0554114 470
278.2036418 -120.0554114 470
281.2507931 -120.3108485 471
283.1036735 -120.0554114 470
285.5536893 -120.0554114 470
288.0037052 -120.0554114 470
289.8357344 -119.7999744 469
291.657338 -119.5445374 468
294.0969282 -119.5445374 468
296.5365184 -119.5445374 468
298.3372708 -119.2891003 467
300.7716483 -119.2891003 467
303.2060257 -119.2891003 467
305.6404031 -119.2891003 467
308.0747806 -119.2891003 467
310.509158 -119.2891003 467
313.6136501 -119.5445374 468
315.3779129 -119.2891003 467
317.8122903 -119.2891003 467
320.2466677 -119.2891003 467
322.6810452 -119.2891003 467
325.1154226 -119.2891003 467
238.6918923 -130.8672807 523
240.9565839 -130.6170564 522
237.5678944 -120.6080866 482
240.0804638 -120.6080866 482
242.0897282 -120.3578623 481
244.5970849 -120.3578623 481
246.0769802 -119.8574138 479
248.5739112 -119.8574138 479
250.546686 -119.6071896 478
253.0384042 -119.6071896 478
254.4609588 -119.1067411 476
256.9422514 -119.1067411 476
258.8785366 -118.8565168 475
261.3546164 -118.8565168 475
263.8306962 -118.8565168 475
265.7461302 -118.6062926 474
267.6511386 -118.3560684 473
270.1167928 -118.3560684 473
272.5824471 -118.3560684 473
274.4666043 -118.1058441 472
276.9270457 -118.1058441 472
278.7955645 -117.8556199 471
281.2507931 -117.8556199 471
283.7060218 -117.8556199 471
286.1612504 -117.8556199 471
288.0037052 -117.6053956 470
290.453721 -117.6053956 470
292.2805374 -117.3551714 469
294.0969282 -117.1049471 468
296.5365184 -117.1049471 468
298.9761087 -117.1049471 468
301.4156989 -117.1049471 468
303.8552891 -117.1049471 468
306.2948794 -117.1049471 468
308.7344696 -117.1049471 468
311.1740598 -117.1049471 468
313.6136501 -117.1049471 468
318.4928305 -117.1049471 468
320.9324208 -117.1049471 468
323.372011 -117.1049471 468
238.6918923 -128.1409864 523
240.9565839 -127.895975 522
238.5536533 -118.58554 484
240.5785561 -118.3405286 483
242.5930333 -118.0955171 482
245.1056027 -118.0955171 482
247.1044415 -117.8505057 481
249.0928547 -117.6054942 480
251.0708422 -117.3604828 479
253.0384042 -117.1154714 478
255.5301225 -117.1154714 478
257.482046 -116.8704599 477
259.423544 -116.6254485 476
261.9048367 -116.6254485 476
264.3861293 -116.6254485 476
266.3067761 -116.380437 475
268.7828559 -116.380437 475
270.6878643 -116.1354256 474
273.1587313 -116.1354256 474
275.0481013 -115.8904141 473
276.9270457 -115.6454027 472
279.3874871 -115.6454027 472
281.8479286 -115.6454027 472
283.7060218 -115.4003912 471
286.1612504 -115.4003912 471
288.616479 -115.4003912 471
290.453721 -115.1553798 470
292.2805374 -114.9103683 469
294.7253404 -114.9103683 469
296.5365184 -114.6653569 468
298.9761087 -114.6653569 468
301.4156989 -114.6653569 468
303.8552891 -114.6653569 468
306.2948794 -114.6653569 468
309.3941586 -114.9103683 469
311.8389617 -114.9103683 469
314.2837647 -114.9103683 469
317.4038952 -115.1553798 470
319.1733708 -114.9103683 469
322.9896799 -115.4003912 471
326.1358743 -115.6454027 472
236.4167752 -125.6544909 524
237.7791126 -124.9350949 521
239.5717759 -124.4554976 519
237.0059916 -116.5421423 486
239.0465328 -116.3023437 485
241.0766483 -116.062545 484
243.5996434 -116.062545 484
245.6141205 -115.8227464 483
247.1044415 -115.3431491 481
249.6117981 -115.3431491 481
251.5949985 -115.1033504 480
253.5677733 -114.8635518 479
255.5301225 -114.6237531 478
258.0218407 -114.6237531 478
259.9685515 -114.3839545 477
262.4550569 -114.3839545 477
264.3861293 -114.1441558 476
266.8674219 -114.1441558 476
268.7828559 -113.9043572 475
271.2589357 -113.9043572 475
273.1587313 -113.6645585 474
275.0481013 -113.4247599 473
277.5137555 -113.4247599 473
279.3874871 -113.1849612 472
281.8479286 -113.1849612 472
284.30837 -113.1849612 472
286.1612504 -112.9451626 471
288.616479 -112.9451626 471
291.0717077 -112.9451626 471
292.2805374 -112.4655653 469
294.7253404 -112.4655653 469
297.1701435 -112.4655653 469
299.6149465 -112.4655653 469
301.4156989 -112.2257667 468
303.8552891 -112.2257667 468
306.9493556 -112.4655653 469
309.3941586 -112.4655653 469
312.5038635 -112.705364 470
315.623994 -112.9451626 471
318.0792226 -112.9451626 471
320.5344512 -112.9451626 471
323.6754329 -113.1849612 472
348.5915431 -119.1799274 497
346.9426791 -117.7411355 491
235.5144211 -122.4538122 522
235.9535532 -121.2808829 517
237.2637627 -120.5771254 514
239.9431417 -120.5771254 514
239.7795633 -116.589166 497
237.4936582 -114.2433075 487
239.5394122 -114.0087217 486
241.5747406 -113.7741358 485
243.5996434 -113.53955 484
246.1226384 -113.53955 484
247.6181721 -113.0703783 482
250.1307416 -113.0703783 482
252.1191547 -112.8357924 481
254.6265114 -112.8357924 481
256.0647043 -112.3666207 479
258.0218407 -112.1320349 478
260.5135589 -112.1320349 478
263.0052771 -112.1320349 478
264.9415623 -111.897449 477
266.8674219 -111.6628632 476
269.3487145 -111.6628632 476
271.2589357 -111.4282774 475
273.7350156 -111.4282774 475
275.6295984 -111.1936915 474
277.5137555 -110.9591057 473
279.9794098 -110.9591057 473
282.445064 -110.9591057 473
284.9107182 -110.9591057 473
286.7688114 -110.7245198 472
289.2292529 -110.7245198 472
291.6896943 -110.7245198 472
293.5269363 -110.489934 471
295.3537527 -110.2553481 470
297.8037685 -110.2553481 470
300.2537843 -110.2553481 470
302.7038002 -110.2553481 470
304.5045526 -110.0207623 469
307.6038318 -110.2553481 470
310.7135367 -110.489934 471
313.8336672 -110.7245198 472
318.75455 -110.7245198 472
321.8955317 -110.9591057 473
351.3971088 -117.5275094 501
233.2585358 -118.5858655 517
234.5843837 -117.8977464 514
236.3405574 -117.4390003 512
237.6090644 -116.7508811 509
239.2971095 -113.7690315 496
237.9813249 -111.9340471 488
240.0322917 -111.7046741 487
242.0728328 -111.475301 486
244.1029484 -111.245928 485
246.6311562 -111.245928 485
248.6456334 -111.0165549 484
250.649685 -110.7871819 483
253.1674672 -110.7871819 483
255.1558804 -110.5578089 482
257.133868 -110.3284358 481
259.10143 -110.0990628 480
261.6035738 -110.0990628 480
263.5554974 -109.8696897 479
265.4969954 -109.6403167 478
267.9887136 -109.6403167 478
270.4804318 -109.6403167 478
272.4010786 -109.4109436 477
274.3112998 -109.1815706 476
276.7925924 -109.1815706 476
279.2738851 -109.1815706 476
281.1632551 -108.9521975 475
283.6393349 -108.9521975 475
284.9107182 -108.4934514 473
287.3763725 -108.4934514 473
289.8420267 -108.4934514 473
292.3076809 -108.4934514 473
293.5269363 -108.0347053 471
295.9821649 -108.0347053 471
298.4373935 -108.0347053 471
303.3478508 -108.0347053 471
305.8030794 -108.0347053 471
308.2583081 -108.0347053 471
311.3732257 -108.2640784 472
313.8336672 -108.2640784 472
316.9642232 -108.4934514 473
319.4298775 -108.4934514 473
350.1778535 -115.3746429 503
352.7998917 -115.3746429 503
354.7153257 -115.1452698 502
356.6203341 -114.9158968 501
233.2585358 -115.8908481 517
233.671604 -114.7700469 512
235.4173521 -114.3217264 510
238.3742665 -113.2009251 505
239.0977661 -112.3042841 501
239.7795633 -111.4076431 497
238.4689915 -109.6143612 489
240.5251711 -109.3902009 488
242.5709251 -109.1660407 487
244.6062535 -108.9418804 486
246.6311562 -108.7177202 485
248.6456334 -108.4935599 484
251.1686285 -108.4935599 484
253.1674672 -108.2693997 483
255.6852495 -108.2693997 483
257.6684498 -108.0452394 482
259.6412246 -107.8210792 481
262.1485813 -107.8210792 481
264.1057176 -107.5969189 480
266.0524284 -107.3727587 479
268.5493595 -107.3727587 479
270.4804318 -107.1485984 478
272.9721501 -107.1485984 478
274.8875841 -106.9244382 477
277.3740895 -106.9244382 477
279.2738851 -106.7002779 476
281.7551777 -106.7002779 476
283.6393349 -106.4761177 475
285.5130665 -106.2519574 474
287.9839335 -106.2519574 474
289.8420267 -106.0277972 473
292.3076809 -106.0277972 473
294.1501357 -105.8036369 472
296.6105772 -105.8036369 472
299.0710186 -105.8036369 472
301.53146 -105.8036369 472
303.9919015 -105.8036369 472
306.4523429 -105.8036369 472
308.9127843 -105.8036369 472
311.3732257 -105.8036369 472
320.1052049 -106.2519574 474
354.904066 -113.4250854 506
356.8351384 -113.2009251 505
232.3561817 -112.7579358 515
233.2152141 -111.882146 511
234.4941468 -111.2253036 508
238.3742665 -110.5684613 505
239.0977661 -109.6926715 501
239.7795633 -108.8168817 497
239.4443248 -107.503197 491
241.0180506 -107.0653021 489
242.5709251 -106.6274072 487
245.1095585 -106.6274072 487
247.1396741 -106.4084598 486
249.1593641 -106.1895123 485
251.1686285 -105.9705649 484
253.6916235 -105.9705649 484
255.6852495 -105.7516174 483
257.6684498 -105.53267 482
259.6412246 -105.3137226 481
262.1485813 -105.3137226 481
264.6559379 -105.3137226 481
266.6078615 -105.0947751 480
268.5493595 -104.8758277 479
271.0462905 -104.8758277 479
272.9721501 -104.6568802 478
275.4638683 -104.6568802 478
277.9555865 -104.6568802 478
279.8605949 -104.4379328 477
281.7551777 -104.2189853 476
284.2364703 -104.2189853 476
286.1154147 -104.0000379 475
288.5914946 -104.0000379 475
290.4548005 -103.7810904 474
292.9256676 -103.7810904 474
294.7733352 -103.562143 473
296.6105772 -103.3431955 472
299.0710186 -103.3431955 472
302.1702979 -103.562143 473
304.6359521 -103.562143 473
307.1016063 -103.562143 473
309.5672606 -103.562143 473
312.6926038 -103.7810904 474
315.1634709 -103.7810904 474
320.3147964 -104.6568802 478
354.3549253 -111.4442511 509
356.3068489 -111.2253036 508
358.2483468 -111.0063562 507
232.7588243 -109.0046707 510
234.4941468 -108.5772014 508
236.6754335 -108.3634668 507
238.3742665 -107.9359975 505
239.5750071 -107.2947935 502
238.8146556 -105.798651 495
240.4196581 -105.3711817 493
242.0038095 -104.9437124 491
243.5671096 -104.5162431 489
245.6128636 -104.3025085 488
247.1396741 -103.8750392 486
249.6730947 -103.8750392 486
251.6875719 -103.6613045 485
253.6916235 -103.4475699 484
255.6852495 -103.2338352 483
257.6684498 -103.0201006 482
259.6412246 -102.8063659 481
262.1485813 -102.8063659 481
264.6559379 -102.8063659 481
266.6078615 -102.5926313 480
268.5493595 -102.3788966 479
271.0462905 -102.3788966 479
273.5432215 -102.3788966 479
275.4638683 -102.165162 478
277.9555865 -102.165162 478
280.4473048 -102.165162 478
282.3471003 -101.9514273 477
284.8336058 -101.9514273 477
286.717763 -101.7376927 476
289.1990556 -101.7376927 476
291.0675744 -101.523958 475
293.5436542 -101.523958 475
295.3965346 -101.3102234 474
297.8674016 -101.3102234 474
300.3382687 -101.3102234 474
303.4479735 -101.523958 475
305.9240534 -101.523958 475
308.4001332 -101.523958 475
310.876213 -101.523958 475
313.3522929 -101.523958 475
317.8230782 -102.165162 478
322.3251403 -102.8063659 481
354.3549253 -108.7909361 509
357.0082403 -108.7909361 509
232.7588243 -106.3461429 510
234.4941468 -105.9290992 508
236.6754335 -105.7205774 507
238.8462947 -105.5120555 506
240.5294892 -105.0950118 504
240.744471 -104.0524026 499
242.8579914 -103.8438807 498
244.9610862 -103.6353589 497
246.5556631 -103.2183152 495
248.1293888 -102.8012715 493
249.1737455 -102.1757059 490
250.1868254 -101.5501404 487
252.2065153 -101.3416185 486
254.2157797 -101.1330967 485
256.2146185 -100.9245748 484
257.6684498 -100.5075311 482
259.6412246 -100.2990093 481
262.1485813 -100.2990093 481
264.6559379 -100.2990093 481
266.6078615 -100.0904874 480
268.5493595 -99.8819656 479
271.0462905 -99.8819656 479
273.5432215 -99.8819656 479
276.0401525 -99.8819656 479
277.9555865 -99.67344375 478
280.4473048 -99.67344375 478
282.939023 -99.67344375 478
285.4307412 -99.67344375 478
287.3201112 -99.4649219 477
289.1990556 -99.25640005 476
291.6803482 -99.25640005 476
294.1616409 -99.25640005 476
296.019734 -99.0478782 475
298.4958139 -99.0478782 475
300.9718937 -99.0478782 475
303.4479735 -99.0478782 475
306.568104 -99.25640005 476
309.0493966 -99.25640005 476
311.5306893 -99.25640005 476
314.0119819 -99.25640005 476
316.4932745 -99.25640005 476
322.995255 -100.5075311 482
344.248024 -104.6779681 502
351.7016103 -106.1376211 509
354.3549253 -106.1376211 509
357.0082403 -106.1376211 509
231.0026505 -104.0942332 512
233.2152141 -103.8909241 511
234.9557494 -103.484306 509
237.142249 -103.280997 508
239.318323 -103.0776879 507
241.4839713 -102.8743789 506
242.1918326 -102.0611427 502
243.8333247 -101.6545246 500
245.946845 -101.4512155 499
247.5518476 -101.0445975 497
249.1359989 -100.6379794 495
