# .PCD v0.7 - Point Cloud Data file format
VERSION 0.7
FIELDS x y z
SIZE 4 4 4
TYPE F F F
COUNT 1 1 1
WIDTH 1648
HEIGHT 1
VIEWPOINT 0 0 0 1 0 0 0
POINTS 1648
DATA ascii
43.03447085 -18.56195581 445
47.3524657 -18.43681902 442
49.54417807 -18.39510676 441
51.72546484 -18.3533945 440
54.01909668 -18.3533945 440
56.31272853 -18.3533945 440
58.4731641 -18.31168224 439
60.76158314 -18.31168224 439
63.19362406 -18.3533945 440
65.4872559 -18.3533945 440
67.78088774 -18.3533945 440
70.07451959 -18.3533945 440
72.36815143 -18.3533945 440
-260.1551105 -11.64332793 319
-259.3025478 -11.67982739 320
-257.6344519 -11.67982739 320
-255.9663561 -11.67982739 320
-255.0929422 -11.71632685 321
-253.4196336 -11.71632685 321
-252.5305813 -11.75282631 322
-250.8520598 -11.75282631 322
-249.1735384 -11.75282631 322
-247.4950169 -11.75282631 322
-246.5799007 -11.78932577 323
-244.8961664 -11.78932577 323
-242.4594524 -11.75282631 322
-240.7809309 -11.75282631 322
-239.8449635 -11.78932577 323
-238.1612292 -11.78932577 323
-233.8317292 -11.82582523 324
-233.5757623 -11.89882415 326
-232.5876669 -11.93532361 327
-228.5310292 -12.08132146 331
-227.4908058 -12.11782092 332
-225.0801559 -12.08132146 331
-224.0295069 -12.11782092 332
-222.2988574 -12.11782092 332
-177.6262366 -13.03030743 357
-175.2729274 -12.99380797 356
-173.4171707 -12.99380797 356
-171.0795 -12.95730851 355
-146.776171 -12.77481121 350
-144.9516912 -12.77481121 350
-143.5361462 -12.81131067 351
-142.1101756 -12.84781013 352
-140.2752701 -12.84781013 352
-138.4403646 -12.84781013 352
-136.9935429 -12.88430959 353
-135.1534246 -12.88430959 353
-133.3133063 -12.88430959 353
-131.473188 -12.88430959 353
-129.6330698 -12.88430959 353
-127.7929515 -12.88430959 353
-125.5960263 -12.84781013 352
-123.7611208 -12.84781013 352
-121.9262154 -12.84781013 352
-104.4485928 -13.4318015 368
-103.9233571 -13.6142988 373
-101.9119336 -13.86979503 380
-100.1940463 -13.90629449 381
-98.4657333 -13.94279395 382
-96.47444383 -13.94279395 382
-94.48315437 -13.94279395 382
-92.4918649 -13.94279395 382
-90.50057544 -13.94279395 382
-88.27758627 -13.90629449 381
-85.83853581 -13.83329556 379
-81.45511107 -13.76029664 377
-79.2790371 -13.72379718 376
-1.037413625 -16.2057605 444
1.274193134 -16.16926104 443
3.583463376 -16.16926104 443
5.892733619 -16.16926104 443
8.183489179 -16.13276158 442
10.48754662 -16.13276158 442
12.79160406 -16.13276158 442
15.09566151 -16.13276158 442
17.43908483 -16.16926104 443
19.74835507 -16.16926104 443
22.10741679 -16.2057605 444
24.42189984 -16.2057605 444
26.79659996 -16.24225996 445
29.18172568 -16.27875942 446
31.57727699 -16.31525888 447
33.90739844 -16.31525888 447
36.31858815 -16.35175835 448
38.56764132 -16.31525888 447
40.89776276 -16.31525888 447
43.03447085 -16.24225996 445
45.15032774 -16.16926104 443
49.54417807 -16.09626212 441
51.72546484 -16.05976266 440
54.01909668 -16.05976266 440
56.31272853 -16.05976266 440
58.4731641 -16.0232632 439
60.89999221 -16.05976266 440
63.19362406 -16.05976266 440
65.4872559 -16.05976266 440
67.78088774 -16.05976266 440
70.07451959 -16.05976266 440
72.36815143 -16.05976266 440
-262.6549178 -9.949158182 318
-260.9972475 -9.949158182 318
-260.1551105 -9.980444843 319
-258.4922274 -9.980444843 319
-257.6344519 -10.0117315 320
-255.9663561 -10.0117315 320
-255.0929422 -10.04301816 321
-253.4196336 -10.04301816 321
-251.7463249 -10.04301816 321
-250.8520598 -10.07430483 322
-249.1735384 -10.07430483 322
-247.4950169 -10.07430483 322
-246.5799007 -10.10559149 323
-244.8961664 -10.10559149 323
-242.4594524 -10.07430483 322
-241.5286978 -10.10559149 323
-239.8449635 -10.10559149 323
-236.4774949 -10.10559149 323
-233.8317292 -10.13687815 324
-233.5757623 -10.19945147 326
-233.2989441 -10.26202479 328
-229.560827 -10.32459811 330
-228.5310292 -10.35588477 331
-227.4908058 -10.38717143 332
-208.8153189 -10.76261137 344
-207.0221158 -10.76261137 344
-205.8255084 -10.79389803 345
-203.4357097 -10.76261137 344
-201.6425066 -10.76261137 344
-199.8493035 -10.76261137 344
-198.6318449 -10.79389803 345
-196.833429 -10.79389803 345
-179.9899713 -11.20062462 358
-177.6262366 -11.16933796 357
-175.2729274 -11.1380513 356
-172.9300438 -11.10676464 355
-171.0795 -11.10676464 355
-148.1760776 -10.91904467 349
-146.3568106 -10.91904467 349
-144.5375435 -10.91904467 349
-143.1272113 -10.95033133 350
-141.7064535 -10.98161799 351
-140.2752701 -11.01290465 352
-138.8336611 -11.04419131 353
-136.9935429 -11.04419131 353
-135.5362955 -11.07547798 354
-133.6909644 -11.07547798 354
-131.8456333 -11.07547798 354
-129.6330698 -11.04419131 353
-127.7929515 -11.04419131 353
-125.9528332 -11.04419131 353
-124.1127149 -11.04419131 353
-121.9262154 -11.01290465 352
-103.0875124 -11.57606455 370
-102.7991891 -11.76378452 376
-101.6437443 -11.8576445 379
-100.4570228 -11.95150448 382
-98.4657333 -11.95150448 382
-96.72699473 -11.98279114 383
-94.73049247 -11.98279114 383
-92.7339902 -11.98279114 383
-90.73748794 -11.98279114 383
-88.50928598 -11.95150448 382
-86.29150961 -11.92021782 381
-84.08415884 -11.88893116 380
-81.88723368 -11.8576445 379
-79.4898856 -11.79507118 377
-77.31902444 -11.76378452 376
-3.366995301 -13.95385078 446
-1.039750143 -13.92256412 445
1.279945699 -13.92256412 445
3.59964154 -13.92256412 445
5.919337382 -13.92256412 445
8.220518542 -13.89127746 444
10.53500158 -13.89127746 444
12.82054435 -13.8599908 443
15.12981459 -13.8599908 443
17.43908483 -13.8599908 443
19.74835507 -13.8599908 443
22.10741679 -13.89127746 444
24.42189984 -13.89127746 444
26.73638288 -13.89127746 444
29.1162958 -13.92256412 445
31.43599164 -13.92256412 445
33.83154296 -13.95385078 446
36.07538332 -13.92256412 445
38.39507916 -13.92256412 445
40.80626888 -13.95385078 446
42.93776417 -13.89127746 444
45.04840826 -13.82870414 442
47.24533343 -13.79741748 441
49.431833 -13.76613082 440
51.72546484 -13.76613082 440
53.89632601 -13.73484416 439
56.18474505 -13.73484416 439
58.4731641 -13.73484416 439
60.89999221 -13.76613082 440
63.19362406 -13.76613082 440
65.4872559 -13.76613082 440
67.78088774 -13.76613082 440
70.07451959 -13.76613082 440
72.5326245 -13.79741748 441
-262.6549178 -8.291487895 318
-260.9972475 -8.291487895 318
-260.1551105 -8.317561756 319
-258.4922274 -8.317561756 319
-256.8293443 -8.317561756 319
-255.9663561 -8.343635618 320
-254.2982602 -8.343635618 320
-253.4196336 -8.369709479 321
-251.7463249 -8.369709479 321
-250.0730162 -8.369709479 321
-249.1735384 -8.39578334 322
-248.2636349 -8.421857201 323
-246.5799007 -8.421857201 323
-244.8961664 -8.421857201 323
-243.2124321 -8.421857201 323
-241.5286978 -8.421857201 323
-239.8449635 -8.421857201 323
-238.1612292 -8.421857201 323
-237.2096234 -8.447931063 324
-228.5310292 -8.630448092 331
-227.4908058 -8.656521953 332
-207.6239243 -8.99548215 345
-205.8255084 -8.99548215 345
-204.0270925 -8.99548215 345
-202.2286767 -8.99548215 345
-200.4302608 -8.99548215 345
-198.6318449 -8.99548215 345
-196.833429 -8.99548215 345
-195.0350132 -8.99548215 345
-179.9899713 -9.334442347 358
-177.6262366 -9.308368486 357
-175.2729274 -9.282294625 356
-172.9300438 -9.256220763 355
-171.0795 -9.256220763 355
-147.7515043 -9.073703734 348
-146.3568106 -9.099777595 349
-144.5375435 -9.099777595 349
-143.1272113 -9.125851457 350
-141.3027314 -9.125851457 350
-140.2752701 -9.177999179 352
-138.8336611 -9.204073041 353
-137.3816266 -9.230146902 354
-135.5362955 -9.230146902 354
-133.6909644 -9.230146902 354
-131.8456333 -9.230146902 354
-130.0003023 -9.230146902 354
-127.7929515 -9.204073041 353
-125.9528332 -9.204073041 353
-124.1127149 -9.204073041 353
-121.9262154 -9.177999179 352
-101.6437443 -9.881993435 379
-100.4570228 -9.960215018 382
-98.723497 -9.98628888 383
-96.72699473 -9.98628888 383
-94.97783057 -10.01236274 384
-92.97611551 -10.01236274 384
-90.97440044 -10.01236274 384
-88.97268538 -10.01236274 384
-86.51799651 -9.960215018 382
-82.31935628 -9.934141157 381
-79.91158261 -9.881993435 379
-77.73029584 -9.855919573 378
-3.366995301 -11.62894214 446
-1.04208666 -11.62894214 446
1.282821981 -11.62894214 446
3.607730623 -11.62894214 446
5.919337382 -11.60286828 445
8.220518542 -11.57679442 444
10.53500158 -11.57679442 444
12.84948463 -11.57679442 444
15.16396767 -11.57679442 444
17.43908483 -11.55072056 443
19.74835507 -11.55072056 443
22.05762531 -11.55072056 443
24.42189984 -11.57679442 444
26.6761658 -11.55072056 443
29.05086592 -11.57679442 444
31.36534896 -11.57679442 444
33.679832 -11.57679442 444
35.99431504 -11.57679442 444
38.22251701 -11.55072056 443
40.44029338 -11.5246467 442
42.74435082 -11.5246467 442
44.84456931 -11.47249897 440
47.13820115 -11.47249897 440
49.31948792 -11.44642511 439
51.60790697 -11.44642511 439
53.89632601 -11.44642511 439
56.18474505 -11.44642511 439
58.4731641 -11.44642511 439
60.89999221 -11.47249897 440
63.19362406 -11.47249897 440
65.63609057 -11.49857284 441
67.93493522 -11.49857284 441
70.23377986 -11.49857284 441
72.69709757 -11.5246467 442
-262.6549178 -6.633817608 318
-260.9972475 -6.633817608 318
-259.3395772 -6.633817608 318
-258.4922274 -6.65467867 319
-256.8293443 -6.65467867 319
-255.1664612 -6.65467867 319
-254.2982602 -6.675539731 320
-252.6301643 -6.675539731 320
-250.9620684 -6.675539731 320
-250.0730162 -6.696400793 321
-249.1735384 -6.717261855 322
-248.2636349 -6.738122916 323
-246.5799007 -6.738122916 323
-244.8961664 -6.738122916 323
-243.2124321 -6.738122916 323
-241.5286978 -6.738122916 323
-239.8449635 -6.738122916 323
-238.1612292 -6.738122916 323
-236.4774949 -6.738122916 323
-207.6239243 -7.197066273 345
-205.8255084 -7.197066273 345
-204.0270925 -7.197066273 345
-202.2286767 -7.197066273 345
-200.4302608 -7.197066273 345
-199.2075894 -7.217927335 346
-197.4039607 -7.217927335 346
-195.600332 -7.217927335 346
-191.9930747 -7.217927335 346
-177.6262366 -7.447399013 357
-172.9300438 -7.40567689 355
-171.0795 -7.40567689 355
-168.7522548 -7.384815828 354
-166.4354352 -7.363954766 353
-147.7515043 -7.259649458 348
-145.9374501 -7.259649458 348
-141.3027314 -7.301371581 350
-140.2752701 -7.343093705 352
-138.8336611 -7.363954766 353
-137.3816266 -7.384815828 354
-135.5362955 -7.384815828 354
-133.6909644 -7.384815828 354
-131.8456333 -7.384815828 354
-130.0003023 -7.384815828 354
-128.1549712 -7.384815828 354
-125.9528332 -7.363954766 353
-124.1127149 -7.363954766 353
-101.6437443 -7.906342369 379
-100.4570228 -7.968925554 382
-98.723497 -7.989786616 383
-96.97954563 -8.010647678 384
-95.22516867 -8.031508739 385
-93.21824081 -8.031508739 385
-91.21131294 -8.031508739 385
-88.97268538 -8.010647678 384
-3.351896667 -9.262311377 444
-1.037413625 -9.262311377 444
1.279945699 -9.283172439 445
3.59964154 -9.283172439 445
5.919337382 -9.283172439 445
8.220518542 -9.262311377 444
10.53500158 -9.262311377 444
12.84948463 -9.262311377 444
15.16396767 -9.262311377 444
17.43908483 -9.241450316 443
19.74835507 -9.241450316 443
22.05762531 -9.241450316 443
24.31189128 -9.220589254 442
26.55573164 -9.199728192 441
28.85457628 -9.199728192 441
31.15342093 -9.199728192 441
33.45226557 -9.199728192 441
35.75111021 -9.199728192 441
37.96367378 -9.178867131 440
40.25730562 -9.178867131 440
42.55093747 -9.178867131 440
44.74264983 -9.158006069 439
47.03106888 -9.158006069 439
49.31948792 -9.158006069 439
51.60790697 -9.158006069 439
53.89632601 -9.158006069 439
56.31272853 -9.178867131 440
58.60636037 -9.178867131 440
60.89999221 -9.178867131 440
63.33724593 -9.199728192 441
65.63609057 -9.199728192 441
67.93493522 -9.199728192 441
70.39304013 -9.220589254 442
72.69709757 -9.220589254 442
-261.8289589 -4.960499059 317
-260.9972475 -4.976147321 318
-259.3395772 -4.976147321 318
-258.4922274 -4.991795583 319
-256.8293443 -4.991795583 319
-255.1664612 -4.991795583 319
-254.2982602 -5.007443845 320
-252.6301643 -5.007443845 320
-250.9620684 -5.007443845 320
-250.0730162 -5.023092107 321
-249.1735384 -5.038740369 322
-248.2636349 -5.054388631 323
-245.6543588 -5.070036894 324
-243.9654118 -5.070036894 324
-242.2764647 -5.070036894 324
-239.8449635 -5.054388631 323
-238.1612292 -5.054388631 323
-205.8255084 -5.398650396 345
-204.0270925 -5.398650396 345
-202.2286767 -5.398650396 345
-200.4302608 -5.398650396 345
-198.6318449 -5.398650396 345
-196.833429 -5.398650396 345
-195.600332 -5.414298658 346
-193.2365973 -5.398650396 345
-191.4381814 -5.398650396 345
-172.9300438 -5.555133016 355
-170.5975859 -5.539484754 354
-161.37201 -5.476891706 350
-147.3269311 -5.42994692 347
-145.5180896 -5.42994692 347
-144.1233958 -5.445595182 348
-137.3816266 -5.539484754 354
-135.9191664 -5.555133016 355
-134.0686225 -5.555133016 355
-132.2180786 -5.555133016 355
-130.3675347 -5.555133016 355
-99.75455179 -6.055877401 387
-94.18674201 -6.087173925 389
-92.15896295 -6.087173925 389
-90.13118389 -6.087173925 389
-87.87691792 -6.071525663 388
-85.63307756 -6.055877401 387
-21.07973358 -6.697456143 428
-16.61757708 -6.697456143 428
-7.908963087 -6.885235287 440
-5.62809336 -6.900883549 441
-3.336798034 -6.916531812 442
-1.035077108 -6.932180074 443
1.279945699 -6.963476598 445
3.59964154 -6.963476598 445
5.919337382 -6.963476598 445
8.220518542 -6.947828336 444
10.53500158 -6.947828336 444
12.84948463 -6.947828336 444
15.12981459 -6.932180074 443
17.39971895 -6.916531812 442
19.70377639 -6.916531812 442
21.95804236 -6.900883549 441
24.256887 -6.900883549 441
26.49551456 -6.885235287 440
28.72371653 -6.869587025 439
31.01213557 -6.869587025 439
33.30055462 -6.869587025 439
35.50790538 -6.853938763 438
37.79111163 -6.853938763 438
40.07431787 -6.853938763 438
42.35752411 -6.853938763 438
44.64073036 -6.853938763 438
47.03106888 -6.869587025 439
49.31948792 -6.869587025 439
51.60790697 -6.869587025 439
53.89632601 -6.869587025 439
56.31272853 -6.885235287 440
58.60636037 -6.885235287 440
61.03840129 -6.900883549 441
63.33724593 -6.900883549 441
65.78492524 -6.916531812 442
68.08898269 -6.916531812 442
70.39304013 -6.916531812 442
72.86157064 -6.932180074 443
-261.8289589 -3.308041572 317
-260.1765014 -3.308041572 317
-259.3395772 -3.318477035 318
-258.4922274 -3.328912497 319
-256.8293443 -3.328912497 319
-255.1664612 -3.328912497 319
-253.5035781 -3.328912497 319
-252.6301643 -3.339347959 320
-250.9620684 -3.339347959 320
-249.2939725 -3.339347959 320
-243.2124321 -3.370654347 323
-212.9496088 -3.568928132 342
-211.1668313 -3.568928132 342
-209.3840538 -3.568928132 342
-207.6012763 -3.568928132 342
-206.4203073 -3.579363594 343
-205.2289127 -3.589799056 344
-203.4357097 -3.589799056 344
-201.6425066 -3.589799056 344
-199.8493035 -3.589799056 344
-198.6318449 -3.600234519 345
-196.833429 -3.600234519 345
-195.0350132 -3.600234519 345
-193.2365973 -3.600234519 345
-191.4381814 -3.600234519 345
-172.442917 -3.69415368 354
-168.2755535 -3.683718218 353
-134.4462806 -3.715024605 356
-92.86970045 -4.09070125 392
-90.59458329 -4.080265788 391
-88.55637863 -4.080265788 391
-86.29689987 -4.069830326 390
-83.8317854 -4.048959401 388
-80.75497662 -3.996782089 383
-18.84865533 -4.466377896 428
-16.6564032 -4.476813358 429
-14.42011215 -4.476813358 429
-7.837063422 -4.549861595 436
-5.615331243 -4.591603444 440
-3.329248717 -4.602038907 441
-1.035077108 -4.622909831 443
1.277069416 -4.633345294 444
3.59964154 -4.643780756 445
5.9060355 -4.633345294 444
8.202003861 -4.622909831 443
10.5112741 -4.622909831 443
12.79160406 -4.612474369 442
15.09566151 -4.612474369 442
17.32098719 -4.591603444 440
19.57004035 -4.581167982 439
21.8584594 -4.581167982 439
24.09187416 -4.570732519 438
26.31486333 -4.560297057 437
28.46199702 -4.539426132 435
30.72956486 -4.539426132 435
32.99713271 -4.539426132 435
35.26470055 -4.539426132 435
37.5322684 -4.539426132 435
39.89133012 -4.549861595 436
42.16411076 -4.549861595 436
44.53881088 -4.560297057 437
47.03106888 -4.581167982 439
49.31948792 -4.581167982 439
51.72546484 -4.591603444 440
54.01909668 -4.591603444 440
56.440712 -4.602038907 441
58.73955664 -4.602038907 441
61.17681036 -4.612474369 442
63.4808678 -4.612474369 442
65.78492524 -4.612474369 442
68.24303016 -4.622909831 443
70.5523004 -4.622909831 443
73.02604372 -4.633345294 444
75.51021263 -4.643780756 445
-261.8289589 -1.655584085 317
-260.1765014 -1.655584085 317
-259.3395772 -1.660806748 318
-258.4922274 -1.666029411 319
-256.0242366 -1.660806748 318
-255.1664612 -1.666029411 319
-253.5035781 -1.666029411 319
-251.840695 -1.666029411 319
-211.1668313 -1.786150653 342
-209.3840538 -1.786150653 342
-207.6012763 -1.786150653 342
-206.4203073 -1.791373316 343
-204.6323171 -1.791373316 343
-203.4357097 -1.796595979 344
-201.6425066 -1.796595979 344
-199.8493035 -1.796595979 344
-198.0561004 -1.796595979 344
-196.833429 -1.801818642 345
-195.0350132 -1.801818642 345
-193.2365973 -1.801818642 345
-191.4381814 -1.801818642 345
-189.6397655 -1.801818642 345
-98.99995283 -2.04728379 392
-97.20387347 -2.052506453 393
-95.15524321 -2.052506453 393
-93.10661295 -2.052506453 393
-91.05798269 -2.052506453 393
-88.78286553 -2.04728379 392
-86.51817397 -2.042061127 391
-84.263908 -2.036838464 390
-81.38752213 -2.015947813 386
-32.00917768 -2.21963166 425
-29.79373783 -2.21963166 425
-27.6431881 -2.224854323 426
-25.48221276 -2.230076985 427
-23.25634731 -2.230076985 427
-21.07973358 -2.235299648 428
-18.84865533 -2.235299648 428
-16.61757708 -2.235299648 428
-14.42011215 -2.240522311 429
-12.24062213 -2.250967636 431
-10.0170932 -2.256190299 432
-7.80111359 -2.266635624 434
-5.58980701 -2.287526275 438
-3.3216994 -2.297971601 440
-1.032740591 -2.308416926 442
1.277069416 -2.318862252 444
3.59964154 -2.324084914 445
5.919337382 -2.324084914 445
8.202003861 -2.313639589 443
10.5112741 -2.313639589 443
12.79160406 -2.308416926 442
15.06150843 -2.303194264 441
17.32098719 -2.297971601 440
19.57004035 -2.292748938 439
21.80866792 -2.287526275 438
24.03686988 -2.282303613 437
26.25464625 -2.27708095 436
28.46199702 -2.271858287 435
30.72956486 -2.271858287 435
32.99713271 -2.271858287 435
35.26470055 -2.271858287 435
37.5322684 -2.271858287 435
39.89133012 -2.27708095 436
42.16411076 -2.27708095 436
44.53881088 -2.282303613 437
47.13820115 -2.297971601 440
49.54417807 -2.303194264 441
51.96058059 -2.308416926 442
54.26463803 -2.308416926 442
56.69667895 -2.313639589 443
59.13914546 -2.318862252 444
61.45362851 -2.318862252 444
63.76811155 -2.318862252 444
66.08259459 -2.318862252 444
68.5511251 -2.324084914 445
70.71156067 -2.318862252 444
73.19051679 -2.324084914 445
75.51021263 -2.324084914 445
-261.003 -0.003116734943 316
-260.1765014 -0.003126598029 317
-259.3395772 -0.003136461114 318
-258.4922274 -0.003146324199 319
-256.8293443 -0.003146324199 319
-255.1664612 -0.003146324199 319
-253.5035781 -0.003146324199 319
-251.840695 -0.003146324199 319
-210.5493844 -0.003363312075 341
-209.3840538 -0.00337317516 342
-207.6012763 -0.00337317516 342
-205.8184989 -0.00337317516 342
-204.6323171 -0.003383038245 343
-202.8443268 -0.003383038245 343
-201.0563365 -0.003383038245 343
-199.2683462 -0.003383038245 343
-198.0561004 -0.003392901331 344
-196.2628974 -0.003392901331 344
-195.0350132 -0.003402764416 345
-193.2365973 -0.003402764416 345
-191.4381814 -0.003402764416 345
-189.6397655 -0.003402764416 345
-108.6598103 -0.003846603253 390
-106.9002206 -0.003856466338 391
-105.1302052 -0.003866329423 392
-103.3497643 -0.003876192509 393
-101.5588977 -0.003886055594 394
-99.50505463 -0.003886055594 394
-97.69854967 -0.003895918679 395
-95.63949381 -0.003895918679 395
-93.34352545 -0.003886055594 394
-91.28968239 -0.003886055594 394
-89.00935243 -0.003876192509 393
-86.96072217 -0.003876192509 393
-84.0478467 -0.003836740168 389
-55.83706971 -0.003994549532 405
-53.72588585 -0.003994549532 405
-51.61470199 -0.003994549532 405
-49.50351814 -0.003994549532 405
-36.35431607 -0.004181948152 424
-34.22461753 -0.004191811237 425
-32.00917768 -0.004191811237 425
-29.79373783 -0.004191811237 425
-27.6431881 -0.004201674322 426
-25.48221276 -0.004211537408 427
-23.25634731 -0.004211537408 427
-21.07973358 -0.004221400493 428
-18.84865533 -0.004221400493 428
-16.61757708 -0.004221400493 428
-14.42011215 -0.004231263578 429
-12.21222162 -0.004241126663 430
-9.993905488 -0.004250989749 431
-7.765163758 -0.004260852834 432
12.76266378 -0.004349620601 441
15.02735535 -0.004339757516 440
19.48088299 -0.00431016826 437
21.75887644 -0.00431016826 437
23.9818656 -0.004300305175 436
26.19442917 -0.00429044209 435
28.46199702 -0.00429044209 435
30.65892218 -0.004280579004 434
32.92127723 -0.004280579004 434
35.18363227 -0.004280579004 434
37.5322684 -0.00429044209 435
39.89133012 -0.004300305175 436
42.26081744 -0.00431016826 437
44.64073036 -0.004320031346 438
47.24533343 -0.004349620601 441
49.65652315 -0.004359483687 442
52.07813846 -0.004369346772 443
54.51017938 -0.004379209857 444
56.9526459 -0.004389072942 445
59.27234174 -0.004389072942 445
61.59203758 -0.004389072942 445
63.91173342 -0.004389072942 445
66.23142926 -0.004389072942 445
68.5511251 -0.004389072942 445
70.87082095 -0.004389072942 445
73.19051679 -0.004389072942 445
75.6798985 -0.004398936028 446
-256.8293443 1.659736762 319
-255.1664612 1.659736762 319
-253.5035781 1.659736762 319
-212.3269491 1.774201366 341
-210.5493844 1.774201366 341
-208.7718197 1.774201366 341
-206.9942551 1.774201366 341
-205.8184989 1.779404303 342
-204.6323171 1.78460724 343
-202.8443268 1.78460724 343
-201.0563365 1.78460724 343
-199.2683462 1.78460724 343
-198.0561004 1.789810176 344
-196.2628974 1.789810176 344
-194.4696943 1.789810176 344
-193.2365973 1.795013113 345
-191.4381814 1.795013113 345
-109.2170401 2.039551131 392
-107.4470248 2.044754068 393
-105.3983945 2.044754068 393
-103.6127408 2.049957004 394
-101.8166614 2.055159941 395
-100.0101564 2.060362877 396
-98.19322587 2.065565814 397
-96.12374442 2.065565814 397
-93.81735046 2.060362877 396
-91.5213821 2.055159941 395
-84.69603061 2.039551131 392
-57.94825356 2.107189306 405
-53.72588585 2.107189306 405
-51.7421457 2.112392243 406
-49.50351814 2.107189306 405
-43.59633661 2.128001052 409
-32.00917768 2.211248037 425
-29.79373783 2.211248037 425
-27.6431881 2.216450974 426
-25.42253545 2.216450974 426
-23.25634731 2.221653911 427
-21.07973358 2.226856847 428
-18.84865533 2.226856847 428
-16.61757708 2.226856847 428
-14.42011215 2.232059784 429
-12.21222162 2.23726272 430
-9.970717773 2.23726272 430
-7.747188842 2.242465657 431
12.70478322 2.284089149 439
17.24225543 2.278886213 438
19.43630431 2.26848034 436
21.65929348 2.263277403 435
23.92686133 2.263277403 435
26.19442917 2.263277403 435
28.39656714 2.258074466 434
30.65892218 2.258074466 434
32.92127723 2.258074466 434
35.18363227 2.258074466 434
37.5322684 2.263277403 435
39.98282399 2.273683276 437
42.35752411 2.278886213 438
44.84456931 2.289292086 440
47.45959798 2.304900895 443
49.8812133 2.310103832 444
52.31325421 2.315306769 445
54.75572073 2.320509705 446
57.08062937 2.320509705 446
59.40553801 2.320509705 446
61.73044665 2.320509705 446
64.05535529 2.320509705 446
66.38026393 2.320509705 446
68.70517258 2.320509705 446
71.03008122 2.320509705 446
73.35498986 2.320509705 446
75.51021263 2.315306769 445
78.00480714 2.320509705 446
-213.4766413 3.541350309 340
-212.3269491 3.551766045 341
-210.5493844 3.551766045 341
-203.4391257 3.551766045 341
-201.0701782 3.541350309 340
-199.2978263 3.541350309 340
-197.5254744 3.541350309 340
-197.480356 3.572597517 343
-194.4696943 3.583013254 344
-193.2365973 3.59342899 345
-191.4381814 3.59342899 345
-109.2170401 4.082968591 392
-107.4470248 4.093384328 393
-105.3983945 4.093384328 393
-103.6127408 4.103800064 394
-101.8166614 4.1142158 395
-100.2627073 4.135047272 397
-98.19322587 4.135047272 397
-96.12374442 4.135047272 397
-94.05426296 4.135047272 397
-91.7530818 4.124631536 396
-84.91209191 4.093384328 393
-62.17062127 4.218373162 405
-60.05943742 4.218373162 405
-57.94825356 4.218373162 405
-55.97493901 4.228788898 406
-49.74797996 4.239204634 407
-44.02270665 4.301699052 413
-32.00917768 4.426687886 425
-29.79373783 4.426687886 425
-27.57829798 4.426687886 425
-25.42253545 4.437103622 426
-23.2018828 4.437103622 426
-21.03048187 4.447519358 427
-18.80461642 4.447519358 427
-16.57875097 4.447519358 427
-14.35288552 4.447519358 427
-12.12702007 4.447519358 427
-9.901154625 4.447519358 427
-7.675289177 4.447519358 427
17.08479191 4.520429512 434
19.39172564 4.530845248 435
21.609502 4.520429512 434
23.81685277 4.510013776 433
26.07399501 4.510013776 433
28.33113726 4.510013776 433
30.5882795 4.510013776 433
32.84542175 4.510013776 433
35.18363227 4.520429512 434
37.5322684 4.530845248 435
40.16581175 4.572508193 439
42.55093747 4.582923929 440
45.04840826 4.603755402 442
47.67386253 4.63500261 445
50.10590345 4.645418346 446
52.54836996 4.655834083 447
55.00126208 4.666249819 448
57.33659632 4.666249819 448
59.67193056 4.666249819 448
61.86885573 4.655834083 447
64.19897717 4.655834083 447
66.52909861 4.655834083 447
68.85922005 4.655834083 447
71.03008122 4.645418346 446
73.19051679 4.63500261 445
75.51021263 4.63500261 445
77.82990847 4.63500261 445
80.14960431 4.63500261 445
-231.5891459 5.126159758 328
-229.8793476 5.126159758 328
-215.2489932 5.313702188 340
-213.4766413 5.313702188 340
-211.7042894 5.313702188 340
-205.7802125 5.298073652 339
-204.0130734 5.298073652 339
-202.2459344 5.298073652 339
-199.8874124 5.282445116 338
-198.1254861 5.282445116 338
-196.3635598 5.282445116 338
-194.6016336 5.282445116 338
-192.7737376 5.329330724 341
-109.2170401 6.126386052 392
-107.4470248 6.142014588 393
-105.6665838 6.157643124 394
-103.8757173 6.173271659 395
-101.8166614 6.173271659 395
-100.2627073 6.204528731 397
-98.44056397 6.220157267 398
-96.36586972 6.220157267 398
-94.29117546 6.220157267 398
-92.2164812 6.220157267 398
-66.39298898 6.329557018 405
-64.28180513 6.329557018 405
-62.17062127 6.329557018 405
-60.05943742 6.329557018 405
-57.94825356 6.329557018 405
-55.97493901 6.345185554 406
-53.99119887 6.36081409 407
-51.86958941 6.36081409 407
-49.87021087 6.376442625 408
-47.97742483 6.407699697 410
-45.95198229 6.423328233 411
-43.91611414 6.438956769 412
-42.27533924 6.517099448 417
-38.29168078 6.579613591 421
-36.26857475 6.610870663 423
-34.06356051 6.610870663 423
-31.85854626 6.610870663 423
-29.65353201 6.610870663 423
-27.44851776 6.610870663 423
-25.24350351 6.610870663 423
-23.03848926 6.610870663 423
-20.7842233 6.595242127 422
-18.58442185 6.595242127 422
-16.3846204 6.595242127 422
-14.18481895 6.595242127 422
-11.92821647 6.563985056 420
-9.738840615 6.563985056 420
-7.549464765 6.563985056 420
-5.347326798 6.54835652 419
-3.15561443 6.532727984 418
23.81685277 6.767156022 433
26.07399501 6.767156022 433
28.33113726 6.767156022 433
30.5882795 6.767156022 433
32.84542175 6.767156022 433
35.26470055 6.798413093 435
45.86376407 7.032841131 450
48.31665618 7.048469667 451
50.66762882 7.048469667 451
53.01860146 7.048469667 451
55.49234477 7.064098203 452
57.84853021 7.064098203 452
60.07151938 7.048469667 451
62.28408295 7.032841131 450
64.48622091 7.017212595 449
66.67793328 7.001584059 448
69.01326752 7.001584059 448
71.03008122 6.970326988 446
73.19051679 6.954698452 445
75.51021263 6.954698452 445
77.6550098 6.939069916 444
79.96949284 6.939069916 444
83.21059723 7.017212595 449
-230.8830814 6.815116705 327
-230.5801993 6.856799376 329
-228.8651882 6.856799376 329
-222.2988574 6.919323383 332
-220.5660488 7.086054067 340
-201.6493387 7.044371396 338
-169.7358546 7.502880777 360
-167.3929711 7.482039441 359
-165.0605131 7.461198106 358
-156.442136 7.586246118 364
-154.544677 7.586246118 364
-152.6472179 7.586246118 364
-111.2604576 8.169803512 392
-109.495655 8.190644848 393
-107.7204269 8.211486183 394
-105.9347731 8.232327519 395
-103.8757173 8.232327519 395
-102.0744251 8.253168854 396
-100.5152582 8.294851525 398
-98.44056397 8.294851525 398
-96.85012032 8.336534196 400
-92.6798806 8.336534196 400
-90.36827384 8.315692861 399
-71.82868203 8.336534196 400
-70.26663889 8.399058203 403
-68.33502673 8.419899538 404
-66.39298898 8.440740874 405
-64.44052564 8.461582209 406
-62.47763669 8.482423545 407
-60.35602723 8.482423545 407
-58.23441778 8.482423545 407
-56.25067763 8.50326488 408
-54.12385538 8.50326488 408
-52.12447683 8.524106216 409
-50.11467268 8.544947551 410
-48.09444294 8.565788887 411
-46.06378759 8.586630222 412
-42.27533924 8.690836899 417
-40.1977687 8.711678235 418
-38.20072667 8.753360906 420
-36.26857475 8.815884912 423
-34.06356051 8.815884912 423
-31.78323054 8.795043577 422
-29.58342909 8.795043577 422
-27.31873753 8.774202241 421
-25.12414888 8.774202241 421
-22.87509572 8.753360906 420
-20.68571987 8.753360906 420
-18.49634402 8.753360906 420
-16.26814205 8.73251957 419
-14.083979 8.73251957 419
-11.87141543 8.711678235 418
-9.669277468 8.690836899 417
-7.495540016 8.690836899 417
-5.309040448 8.669995564 416
-3.140515796 8.669995564 416
21.55971052 9.024298267 433
23.81685277 9.024298267 433
26.13421209 9.045139603 434
28.39656714 9.045139603 434
30.65892218 9.045139603 434
32.92127723 9.045139603 434
45.96568354 9.399442306 451
48.42378846 9.420283642 452
50.89231897 9.441124977 453
53.25371721 9.441124977 453
55.73788612 9.461966313 454
57.97651369 9.441124977 453
60.20471565 9.420283642 452
62.42249202 9.399442306 451
64.62984278 9.378600971 450
66.82676795 9.357759635 449
68.85922005 9.316076964 447
71.03008122 9.295235629 446
73.19051679 9.274394293 445
75.34052676 9.253552958 444
77.6550098 9.253552958 444
79.96949284 9.253552958 444
82.65462442 9.295235629 446
85.3606072 9.3369183 448
-232.5876669 8.519702189 327
-231.5891459 8.545756324 328
-230.5801993 8.571810459 329
-229.560827 8.597864594 330
-227.8406032 8.597864594 330
-226.8055925 8.623918729 331
-225.7601563 8.649972865 332
-224.0295069 8.649972865 332
-222.9684322 8.676027 333
-221.23257 8.676027 333
-219.4967077 8.676027 333
-219.2686015 8.806297675 338
-218.1501861 8.832351811 339
-216.383047 8.832351811 339
-201.052743 8.78024354 337
-199.2960295 8.78024354 337
-177.3141858 9.483705189 364
-174.9348126 9.457651054 363
-172.5658651 9.431596919 362
-170.2073431 9.405542783 361
-168.3255225 9.405542783 361
-165.9826389 9.379488648 360
-163.6501809 9.353434513 359
-154.544677 9.483705189 364
-153.0665784 9.509759324 365
-151.1639065 9.509759324 365
-149.2612346 9.509759324 365
-147.7622849 9.535813459 366
-105.9347731 10.29138338 395
-68.50417284 10.55192473 405
-66.55692229 10.57797886 406
-64.59924614 10.604033 407
-62.47763669 10.604033 407
-60.50432214 10.63008713 408
-58.37749988 10.63008713 408
-56.38854694 10.65614127 409
-54.25651188 10.65614127 409
-52.25192054 10.68219541 410
-50.23690359 10.70824954 411
-48.21146105 10.73430368 412
-46.1755929 10.76035781 413
-44.02270665 10.76035781 413
-42.27533924 10.86457435 417
-38.20072667 10.94273676 420
-36.09709213 10.96879089 421
-33.90250348 10.96879089 421
-31.63259912 10.94273676 420
-29.37312036 10.91668262 419
-27.18895731 10.91668262 419
-24.94511694 10.89062849 418
-22.76616669 10.89062849 418
-20.53796473 10.86457435 417
-18.32018836 10.83852022 416
-16.15166371 10.83852022 416
-13.98313906 10.83852022 416
-11.8146144 10.83852022 416
-9.622902036 10.81246608 415
-7.441615268 10.78641195 414
-5.283516215 10.78641195 414
-3.125417163 10.78641195 414
-0.964981593 10.76035781 413
5.520280929 10.81246608 415
19.2579896 11.25538638 432
21.55971052 11.28144051 433
23.81685277 11.28144051 433
26.13421209 11.30749465 434
28.39656714 11.30749465 434
30.65892218 11.30749465 434
32.92127723 11.30749465 434
35.34576883 11.35960292 436
43.2278842 11.64619841 447
45.96568354 11.75041495 451
48.42378846 11.77646908 452
51.00466405 11.82857735 454
53.37127508 11.82857735 454
55.73788612 11.82857735 454
58.10449716 11.82857735 454
60.20471565 11.77646908 452
62.42249202 11.75041495 451
64.48622091 11.69830668 449
66.67793328 11.67225254 448
68.85922005 11.64619841 447
70.87082095 11.59409013 445
72.86157064 11.54198186 443
75.17084089 11.54198186 443
77.30521246 11.51592773 442
79.6092699 11.51592773 442
81.91332734 11.51592773 442
84.40792186 11.54198186 443
86.91294197 11.568036 444
89.62935035 11.62014427 446
-234.2922524 10.22428767 327
-233.2989441 10.25555461 328
-232.2952103 10.28682154 329
-231.2810509 10.31808848 330
-229.560827 10.31808848 330
-228.5310292 10.34935541 331
-226.8055925 10.34935541 331
-225.7601563 10.38062235 332
-224.7042945 10.41188928 333
-222.9684322 10.41188928 333
-220.155857 10.44315622 334
-217.5066752 10.56822396 338
-215.7447489 10.56822396 338
-213.9828226 10.56822396 338
-212.8487688 10.59949089 339
-211.0816298 10.59949089 339
-209.3144907 10.59949089 339
-207.5473516 10.59949089 339
-203.411265 10.56822396 338
-201.6493387 10.56822396 338
-199.8874124 10.56822396 338
-198.1254861 10.56822396 338
-195.7826026 10.53695702 337
-194.0258891 10.53695702 337
-175.8986408 11.41243119 365
-173.9959689 11.41243119 365
-160.6772659 11.41243119 365
-158.774594 11.41243119 365
-156.8719221 11.41243119 365
-154.9692502 11.41243119 365
-153.4859389 11.44369813 366
-151.5780542 11.44369813 366
-149.6701695 11.44369813 366
-107.993829 12.35043924 395
-106.4711517 12.41297311 397
-104.6646467 12.44424004 398
-83.70685566 12.41297311 397
-81.6373742 12.41297311 397
-79.36746984 12.38170617 396
-77.49841129 12.41297311 397
-75.61892713 12.44424004 398
-73.72901738 12.47550698 399
-72.18782544 12.56930778 402
-70.44099779 12.63184165 404
-68.50417284 12.66310859 405
-66.7208556 12.72564245 407
-64.75796665 12.75690939 408
-62.63114439 12.75690939 408
-60.65261705 12.78817632 409
-58.52058199 12.78817632 409
-56.52641625 12.81944326 410
-54.38916839 12.81944326 410
-52.25192054 12.81944326 410
-50.23690359 12.85071019 411
-48.21146105 12.88197713 412
-46.1755929 12.91324406 413
-44.12929916 12.944511 414
-42.17395953 13.00704487 416
-40.10160179 13.0383118 417
-38.01881845 13.06957874 418
-35.92560951 13.10084567 419
-33.66091795 13.06957874 418
-31.4819677 13.06957874 418
-29.23291453 13.0383118 417
-26.99428697 13.00704487 416
-24.82576232 13.00704487 416
-22.60277315 12.97577793 415
-20.4394613 12.97577793 415
-18.23211053 12.944511 414
-16.07401148 12.944511 414
-13.91591243 12.944511 414
-11.72941286 12.91324406 413
-9.576526605 12.91324406 413
-7.423640352 12.91324406 413
-5.270754099 12.91324406 413
-3.110318529 12.88197713 412
-0.9626450758 12.88197713 412
1.18790466 12.91324406 413
12.29961929 13.28844728 425
14.5833653 13.35098115 427
16.84859663 13.38224809 428
19.12425356 13.41351502 429
21.41033608 13.44478195 430
23.76184849 13.50731582 432
26.01377793 13.50731582 432
28.26570738 13.50731582 432
30.51763683 13.50731582 432
32.76956627 13.50731582 432
35.26470055 13.60111663 435
42.64764414 13.78871824 441
45.25224721 13.88251904 444
47.99525936 14.00758678 448
50.55528375 14.07012065 450
53.01860146 14.10138758 451
55.49234477 14.13265452 452
57.84853021 14.13265452 452
60.07151938 14.10138758 451
62.14567387 14.03885372 449
64.34259904 14.00758678 448
66.52909861 13.97631985 447
68.70517258 13.94505291 446
70.71156067 13.88251904 444
72.69709757 13.81998517 442
75.00115502 13.81998517 442
77.13031379 13.78871824 441
79.42915843 13.78871824 441
81.72800307 13.78871824 441
84.02684772 13.78871824 441
86.52144223 13.81998517 442
89.02646234 13.85125211 443
91.54190805 13.88251904 444
-237.2096234 11.81943395 324
-237.7014233 11.92887316 327
-236.7185407 11.96535289 328
-235.0087424 11.96535289 328
-234.0102214 12.00183262 329
-233.0012748 12.03831236 330
-231.9819026 12.07479209 331
-230.2564659 12.07479209 331
-228.5310292 12.07479209 331
-227.4908058 12.11127183 332
-225.7601563 12.11127183 332
-224.7042945 12.14775156 333
-222.9684322 12.14775156 333
-220.155857 12.1842313 334
-213.9828226 12.33015023 338
-213.4766413 12.4031097 340
-212.3269491 12.43958944 341
-206.9942551 12.43958944 341
-203.4391257 12.43958944 341
-201.0701782 12.4031097 340
-199.2978263 12.4031097 340
-197.5254744 12.4031097 340
-195.7531225 12.4031097 340
-177.8013127 13.31510306 365
-176.3805549 13.3515828 366
-174.4726702 13.3515828 366
-166.3852815 13.31510306 365
-164.4826096 13.31510306 365
-160.6772659 13.31510306 365
-158.774594 13.31510306 365
-157.3017082 13.3515828 366
-154.9692502 13.31510306 365
-153.4859389 13.3515828 366
-151.5780542 13.3515828 366
-150.0791044 13.38806253 367
-148.1660069 13.38806253 367
-110.6101146 14.48245457 397
-107.0075303 14.55541403 399
-92.6798806 14.59189377 400
-90.59476075 14.59189377 400
-88.28836679 14.55541403 399
-85.99239842 14.5189343 398
-83.91770417 14.5189343 398
-81.84300991 14.5189343 398
-79.76831565 14.5189343 398
-77.69362139 14.5189343 398
-75.80892444 14.55541403 399
-73.91380188 14.59189377 400
-72.36739714 14.70133297 403
-68.67331895 14.81077218 406
-66.7208556 14.84725191 407
-64.75796665 14.88373164 408
-62.63114439 14.88373164 408
-60.65261705 14.92021138 409
-58.52058199 14.92021138 409
-56.52641625 14.95669111 410
-54.38916839 14.95669111 410
-52.25192054 14.95669111 410
-50.11467268 14.95669111 410
-48.09444294 14.99317085 411
-45.95198229 14.99317085 411
-43.91611414 15.02965058 412
-41.8698204 15.06613032 413
-39.71693415 15.06613032 413
-37.56404789 15.06613032 413
-35.41116164 15.06613032 413
-33.17774688 15.02965058 412
-31.03007342 15.02965058 412
-28.88239997 15.02965058 412
-26.6698364 14.99317085 411
-24.46769844 14.95669111 410
-22.33045058 14.95669111 410
-20.19320273 14.95669111 410
-18.05595487 14.95669111 410
-15.91870702 14.95669111 410
-13.78145917 14.95669111 410
-11.64421131 14.95669111 410
-9.506963458 14.95669111 410
-7.38769052 14.99317085 411
-5.245229866 14.99317085 411
-3.102769212 14.99317085 411
-0.9603085587 14.99317085 411
1.18790466 15.06613032 413
3.348879995 15.10261005 414
5.520280929 15.13908979 415
7.739136826 15.24852899 418
12.27067901 15.46740739 424
14.54921222 15.54036686 426
16.84859663 15.61332633 428
19.12425356 15.64980607 429
21.41033608 15.6862858 430
23.70684421 15.72276554 431
25.95356086 15.72276554 431
28.26570738 15.75924527 432
30.51763683 15.75924527 432
32.76956627 15.75924527 432
35.102564 15.795725 433
37.5322684 15.86868447 435
40.07431787 15.97812368 438
47.78099481 16.26996155 446
50.3305936 16.34292102 448
52.78348571 16.37940076 449
55.24680343 16.41588049 450
57.59256327 16.41588049 450
59.93832311 16.41588049 450
62.0072648 16.34292102 448
64.19897717 16.30644129 447
66.38026393 16.26996155 446
68.5511251 16.23348182 445
70.71156067 16.19700208 444
72.69709757 16.12404261 442
75.00115502 16.12404261 442
77.13031379 16.08756288 441
79.42915843 16.08756288 441
81.5426788 16.05108315 440
83.83631065 16.05108315 440
86.12994249 16.05108315 440
88.624537 16.08756288 441
90.92338164 16.08756288 441
94.27916763 16.26996155 446
-254.3665663 13.25822583 318
-252.708896 13.25822583 318
-251.840695 13.29991837 319
-241.5286978 13.4666885 323
-238.428339 13.67515117 328
-237.4402436 13.71684371 329
-236.4417226 13.75853624 330
-234.7214987 13.75853624 330
-233.7073393 13.80022878 331
-232.6827543 13.84192131 332
-230.9521048 13.84192131 332
-229.2214553 13.84192131 332
-228.1760191 13.88361384 333
-226.4401568 13.88361384 333
-224.7042945 13.88361384 333
-222.9684322 13.88361384 333
-221.896932 13.92530638 334
-220.8150062 13.96699891 335
-219.0687183 13.96699891 335
-218.6198778 14.05038398 337
-217.5066752 14.09207651 338
-212.3269491 14.21715412 341
-211.1668313 14.25884665 342
-204.0357214 14.25884665 342
-201.661561 14.21715412 341
-198.1064317 14.21715412 341
-196.328867 14.21715412 341
-176.3805549 15.25946747 366
-174.4726702 15.25946747 366
-172.5647856 15.25946747 366
-170.6569009 15.25946747 366
-168.7490162 15.25946747 366
-166.8411315 15.25946747 366
-164.9332469 15.25946747 366
-163.0253622 15.25946747 366
-161.1174775 15.25946747 366
-159.2095929 15.25946747 366
-157.3017082 15.25946747 366
-155.3938235 15.25946747 366
-153.4859389 15.25946747 366
-151.5780542 15.25946747 366
-150.0791044 15.30116 367
-148.1660069 15.30116 367
-146.2529095 15.30116 367
-112.9634238 16.59362856 398
-101.2729109 16.71870616 401
-99.18257828 16.71870616 401
-97.09224562 16.71870616 401
-95.00191296 16.71870616 401
-92.6798806 16.67701363 400
-90.59476075 16.67701363 400
-88.28836679 16.63532109 399
-86.20845973 16.63532109 399
-83.91770417 16.59362856 398
-81.84300991 16.59362856 398
-79.76831565 16.59362856 398
-77.8888315 16.63532109 399
-75.99892174 16.67701363 400
-74.09858639 16.71870616 401
-72.18782544 16.76039869 402
-70.6153567 16.8854763 405
-68.67331895 16.92716883 406
-66.7208556 16.96886136 407
-64.75796665 17.0105539 408
-62.63114439 17.0105539 408
-60.50432214 17.0105539 408
-58.37749988 17.0105539 408
-56.38854694 17.05224643 409
-54.25651188 17.05224643 409
-52.12447683 17.05224643 409
-49.99244177 17.05224643 409
-47.97742483 17.09393897 410
-45.84017698 17.09393897 410
-43.70292912 17.09393897 410
-41.56568127 17.09393897 410
-39.42843341 17.09393897 410
-37.29118556 17.09393897 410
-35.15393771 17.09393897 410
-32.93616134 17.05224643 409
-30.80412629 17.05224643 409
-28.67209123 17.05224643 409
-26.47516606 17.0105539 408
-24.34834381 17.0105539 408
-22.22152155 17.0105539 408
-20.0946993 17.0105539 408
-17.96787704 17.0105539 408
-15.84105479 17.0105539 408
-13.71423254 17.0105539 408
-11.6158108 17.05224643 409
-9.483775742 17.05224643 409
-7.369715604 17.09393897 410
-5.23246775 17.09393897 410
-3.095219895 17.09393897 410
-0.9603085587 17.1356315 411
1.18790466 17.21901657 413
3.348879995 17.2607091 414
5.520280929 17.30240164 415
7.739136826 17.42747924 418
9.965542039 17.51086431 420
12.21279845 17.59424938 422
14.54921222 17.76101951 426
16.80923075 17.80271205 427
19.07967488 17.84440458 428
21.3605446 17.88609711 429
23.70684421 17.96948218 431
25.95356086 17.96948218 431
28.26570738 18.01117472 432
30.51763683 18.01117472 432
32.76956627 18.01117472 432
35.102564 18.05286725 433
37.44598732 18.09455978 434
39.98282399 18.21963739 437
42.35752411 18.26132992 438
44.84456931 18.34471499 440
50.10590345 18.59487019 446
52.54836996 18.63656273 447
57.46457979 18.7199478 449
59.93832311 18.76164033 450
62.0072648 18.67825526 448
64.19897717 18.63656273 447
66.38026393 18.59487019 446
68.5511251 18.55317766 445
70.5523004 18.46979259 443
72.69709757 18.42810006 442
74.83146914 18.38640752 441
77.13031379 18.38640752 441
79.42915843 18.38640752 441
81.5426788 18.34471499 440
83.83631065 18.34471499 440
86.12994249 18.34471499 440
88.42357433 18.34471499 440
90.92338164 18.38640752 441
93.85639109 18.51148513 444
-260.1551105 14.96280145 319
-258.4922274 14.96280145 319
-256.8293443 14.96280145 319
-255.1664612 14.96280145 319
-253.5035781 14.96280145 319
-251.840695 14.96280145 319
-250.9620684 15.00970679 320
-250.0730162 15.05661212 321
-249.1735384 15.10351745 322
-243.2124321 15.15042279 323
-242.2764647 15.19732812 324
-240.5875176 15.19732812 324
-238.428339 15.38494946 328
-237.4402436 15.43185479 329
-236.4417226 15.47876012 330
-234.7214987 15.47876012 330
-233.7073393 15.52566546 331
-232.6827543 15.57257079 332
-230.9521048 15.57257079 332
-229.9118814 15.61947613 333
-228.1760191 15.61947613 333
-226.4401568 15.61947613 333
-224.7042945 15.61947613 333
-223.6380071 15.66638146 334
-221.896932 15.66638146 334
-220.8150062 15.71328679 335
-219.0687183 15.71328679 335
-218.6198778 15.80709746 337
-216.8631643 15.80709746 337
-212.3269491 15.9947188 341
-211.1668313 16.04162413 342
-206.4203073 16.08852946 343
-204.0357214 16.04162413 342
-202.2529439 16.04162413 342
-177.9789102 16.60448813 354
-175.8986408 17.1204468 365
-174.4726702 17.16735214 366
-172.5647856 17.16735214 366
-171.1231766 17.21425747 367
-169.2100791 17.21425747 367
-167.2969816 17.21425747 367
-165.8345215 17.26116281 368
-163.4707867 17.21425747 367
-161.5576892 17.21425747 367
-157.3017082 17.16735214 366
-155.3938235 17.16735214 366
-153.4859389 17.16735214 366
-151.9922019 17.21425747 367
-150.0791044 17.21425747 367
-148.1660069 17.21425747 367
-146.6514188 17.26116281 368
-144.7331085 17.26116281 368
-142.8147982 17.26116281 368
-140.896488 17.26116281 368
-138.6005196 17.21425747 367
-136.6874221 17.21425747 367
-134.7743247 17.21425747 367
-132.8612272 17.21425747 367
-116.5243057 18.57451215 396
-114.460037 18.57451215 396
-112.6795961 18.62141748 397
-110.6101146 18.62141748 397
-105.1905997 18.76213348 400
-103.3632436 18.80903882 401
-101.2729109 18.80903882 401
-99.18257828 18.80903882 401
-97.09224562 18.80903882 401
-95.00191296 18.80903882 401
-92.9115803 18.80903882 401
-90.59476075 18.76213348 400
-88.50964089 18.76213348 400
-86.20845973 18.71522815 399
-84.12855267 18.71522815 399
-82.04864561 18.71522815 399
-79.96873855 18.71522815 399
-78.0840416 18.76213348 400
-76.18891905 18.80903882 401
-74.28337089 18.85594415 402
-72.36739714 18.90284949 403
-70.6153567 18.99666015 405
-68.67331895 19.04356549 406
-66.7208556 19.09047082 407
-64.59924614 19.09047082 407
-62.47763669 19.09047082 407
-60.50432214 19.13737615 408
-58.37749988 19.13737615 408
-56.25067763 19.13737615 408
-54.12385538 19.13737615 408
-51.99703312 19.13737615 408
-49.87021087 19.13737615 408
-47.74338861 19.13737615 408
-45.61656636 19.13737615 408
-43.4897441 19.13737615 408
-41.36292185 19.13737615 408
-39.23609959 19.13737615 408
-37.10927734 19.13737615 408
-34.98245508 19.13737615 408
-32.77510432 19.09047082 407
-30.65349486 19.09047082 407
-28.53188541 19.09047082 407
-26.41027595 19.09047082 407
-24.2886665 19.09047082 407
-22.16705704 19.09047082 407
-20.04544759 19.09047082 407
-17.92383813 19.09047082 407
-15.80222868 19.09047082 407
-13.68061922 19.09047082 407
-11.58741028 19.13737615 408
-9.460588026 19.13737615 408
-7.333765771 19.13737615 408
-5.23246775 19.23118682 410
-3.095219895 19.23118682 410
-0.9603085587 19.27809215 411
1.18790466 19.37190282 413
3.348879995 19.41880816 414
5.520280929 19.46571349 415
7.739136826 19.60642949 418
9.98926952 19.74714549 421
12.24173873 19.84095616 423
14.54921222 19.98167216 426
16.80923075 20.02857749 427
19.07967488 20.07548283 428
21.3605446 20.12238816 429
23.70684421 20.21619883 431
25.95356086 20.21619883 431
28.2002775 20.21619883 431
30.51763683 20.26310416 432
32.76956627 20.26310416 432
35.102564 20.3100095 433
37.44598732 20.35691483 434
39.79983624 20.40382016 435
42.16411076 20.4507255 436
44.64073036 20.54453616 438
47.3524657 20.7321575 442
49.8812133 20.82596817 444
57.33659632 21.0135895 448
59.67193056 21.0135895 448
62.0072648 21.0135895 448
64.05535529 20.91977883 446
66.38026393 20.91977883 446
68.39707763 20.82596817 444
70.5523004 20.77906283 443
72.69709757 20.7321575 442
75.00115502 20.7321575 442
77.30521246 20.7321575 442
79.42915843 20.68525217 441
81.72800307 20.68525217 441
84.02684772 20.68525217 441
86.12994249 20.63834683 440
88.624537 20.68525217 441
90.92338164 20.68525217 441
93.43361456 20.7321575 442
-262.6387396 16.67780267 320
-260.9706437 16.67780267 320
-259.3025478 16.67780267 320
-256.8293443 16.62568454 319
-255.1664612 16.62568454 319
-253.5035781 16.62568454 319
-252.6301643 16.67780267 320
-250.9620684 16.67780267 320
-250.0730162 16.72992081 321
-249.1735384 16.78203894 322
-248.2636349 16.83415707 323
-246.5799007 16.83415707 323
-244.8961664 16.83415707 323
-243.9654118 16.88627521 324
-242.2764647 16.88627521 324
-240.5875176 16.88627521 324
-238.6738803 16.99051147 326
-239.1552547 17.14686587 329
-237.4402436 17.14686587 329
-236.4417226 17.19898401 330
-235.432776 17.25110214 331
-233.7073393 17.25110214 331
-233.3836059 17.35533841 333
-231.6477436 17.35533841 333
-229.9118814 17.35533841 333
-228.8612324 17.40745654 334
-227.1201573 17.40745654 334
-225.3790822 17.40745654 334
-223.6380071 17.40745654 334
-220.8150062 17.45957467 335
-219.0687183 17.45957467 335
-218.6198778 17.56381094 337
-216.8631643 17.56381094 337
-215.1064508 17.56381094 337
-213.3497374 17.56381094 337
-211.1668313 17.82440161 342
-209.9962879 17.87651974 343
-208.8153189 17.92863787 344
-207.6239243 17.98075601 345
-205.2289127 17.92863787 344
-202.8443268 17.87651974 343
-179.3162632 18.39770107 353
-177.9789102 18.44981921 354
