1969,1969,1969,1969,1969,1969,1975,1975,1981,1988,1988,1994,1988,1981,1981,1981,1975,1969,1962,1962,1962,1962,1962,1956,1950,1944,1931,1919,1884,1861,1844,1817,1790,1754,1734,1715,1696,1677,1673,1668,1668,1664,1664,1668,1664,1664,1668,1673,1673,1682,1696,1696,1701,1696,1696,1696,1691,1691,1691,1691,1696,1696,1701,1705,1710,1715,1715,1720,0,0,0,0,0,0,0,0,0,0,0,0,0,0,0,0,0,0,0,0,0,0,0,0,0,0,0,0,0,0,0,0,0,0,0,0,0,0,0,0,0,0,0,0,0,0,0,0,0,0,0,0,0,0,0,0,0,0,0,0,0,0,0,0,0,0,0,0,0,0,0,0,0,0,0,0,1950,1950,1950,1950,1944,1944,1944,1937,1937,1931,1925,1919,1919,0,1907,1907,1907,1913,1919,1944,1956,1969,1994,2001,2007,2021,2027,2034,2034,2041,2061,2068,0,0,2061,2054,2048,2034,2034,2034,2034,2027,2027,2021,2021,2021,2007,2007,2001,1994,1988,0,0,0,0,0,0,0,0,0,0,0,0,0,0,0,0,0,0,0,0,0,0,0,0,0,0,0,0,0,0,0,499,498,497,497,495,491,488,484,477,474,472,471,469,468,467,467,0,0,0,0,0,0,0,0,0,0,0,0,495,497,498,500,501,501,500,499,499,497,497,494,493,492,491,490,489,488,489,489,491,491,492,493,495,494,494,494,494,0,0,495,496,495,495,495,709,705,705,709,712,716,726,736,0,0,0,0,0,0,0,0,714,715,714,714,714,714,713,713,712,712,710,709,709,708
1975,1969,1975,1975,1981,1988,1988,1988,1994,2007,2007,2007,2001,2001,1994,1994,1981,1975,1981,1981,1975,1969,1969,1962,1956,1950,1937,1931,1890,1878,1855,1828,1801,1764,1744,1725,1710,1687,1682,1677,1677,1673,1673,1673,1673,1668,1677,1682,1691,1701,1710,1710,1715,1710,1705,1705,1701,1696,1696,1696,1696,1701,1705,1710,1715,1720,1720,1725,1729,0,0,0,0,0,0,0,0,0,0,0,0,0,0,0,0,0,0,0,0,0,0,0,0,0,0,0,0,0,0,0,0,0,0,0,0,0,0,0,0,0,0,0,0,0,0,0,0,0,0,0,0,0,0,0,0,0,0,0,0,0,0,0,0,0,0,0,0,0,0,0,0,0,0,1944,1944,1944,1937,1931,1931,1931,1931,1931,1925,1925,1925,1919,0,0,1901,1901,1907,1907,1913,1944,1950,1962,1975,1994,2007,2021,2027,2034,2034,2041,2061,0,0,0,2061,2054,2048,2034,2034,2034,2034,2027,2027,2027,2021,2014,2007,2001,2001,1994,1988,0,0,0,0,0,0,0,0,0,0,0,0,0,0,0,0,0,0,0,0,0,0,0,0,0,0,0,0,0,0,0,499,498,497,497,495,491,0,0,476,473,471,470,469,467,467,467,467,467,471,474,474,478,481,483,487,488,489,491,493,496,497,499,499,499,499,498,498,497,496,493,492,492,491,491,490,489,490,491,493,493,494,495,496,495,495,495,495,0,0,495,497,498,497,498,0,705,705,707,708,708,712,0,0,0,0,0,0,0,0,716,714,714,0,714,714,714,713,713,713,713,712,711,711,709
1975,1975,1981,1988,1994,2001,2001,2001,2007,2021,2014,2021,2014,2007,2007,2007,1994,1994,1988,1988,1981,1981,1981,1975,1962,1956,1944,1931,1901,1884,1861,1839,1811,1769,1754,1739,1725,1701,1696,1691,1691,1687,1687,1687,1691,1705,1720,1729,1744,1754,1769,1764,1749,1739,1729,1725,1715,1705,1705,1710,1710,1715,1720,1729,1729,1739,1744,1744,0,0,0,0,0,0,0,0,0,0,0,0,0,0,0,0,0,0,0,0,0,0,0,0,0,0,0,0,0,0,0,0,0,0,0,0,0,0,0,0,0,0,0,0,0,0,0,0,0,0,0,0,0,0,0,0,0,0,0,0,0,0,0,0,0,0,0,0,0,0,0,0,0,0,0,1937,1937,1937,1931,1931,1931,1931,1931,1931,1931,1931,0,0,0,0,1907,1913,1913,1919,1925,1950,1962,1975,1988,2007,2014,2027,2034,2034,2034,2041,2061,0,0,0,2061,2054,2048,2034,2034,2034,2034,2027,2027,2027,2027,2021,2007,2007,2001,2001,1988,0,0,0,0,0,0,0,0,0,0,0,0,0,0,0,0,0,0,0,0,0,0,0,0,0,0,0,0,0,0,499,499,499,497,497,495,491,0,0,475,472,470,468,467,466,466,466,466,466,469,471,473,477,479,481,483,487,488,490,493,495,496,498,499,499,498,497,497,497,495,493,492,492,492,491,491,490,0,492,493,493,494,495,495,495,495,495,495,494,494,495,497,499,499,499,0,0,706,707,708,0,0,0,0,0,0,0,0,0,0,0,0,0,0,714,713,713,714,714,713,713,713,712,711,711
1969,1975,1988,1994,2001,2007,2014,2014,2021,2034,2034,2034,2027,2027,2027,2021,2014,2001,2001,1994,1988,1981,1975,1969,1956,1950,1937,1925,1901,1890,1872,1850,1833,1795,1785,1769,1754,1739,1729,1725,1725,1720,1715,1720,1720,1725,1739,1749,1759,1785,1785,1775,1769,1744,1739,1729,1725,1715,1720,1720,1725,1729,1734,1739,1744,1749,1754,1759,0,0,0,0,0,0,0,0,0,0,0,0,0,0,0,0,0,0,0,0,0,0,0,0,0,0,0,0,0,0,0,0,0,0,0,0,0,0,0,0,0,0,0,0,0,0,0,0,0,0,0,0,0,0,0,0,0,0,0,0,0,0,0,0,0,0,0,0,0,0,0,0,0,0,0,0,1931,1931,1925,1925,1925,1925,1925,1925,0,0,0,0,0,0,0,1925,1931,1937,1944,1962,1981,1988,2007,2014,2014,2027,2027,2027,2034,2041,2054,0,0,0,2061,2054,2048,2034,2034,2034,2034,2034,2034,2027,2027,2021,2007,2007,2001,2001,1994,0,0,0,0,0,0,0,0,0,0,0,0,0,0,0,0,0,0,0,0,0,0,0,0,0,0,0,0,0,0,501,500,499,498,497,494,0,487,0,475,472,470,468,467,466,466,466,466,467,469,470,472,473,477,479,482,485,487,488,0,0,494,495,497,497,497,496,496,496,495,493,493,492,492,491,491,490,0,492,493,493,493,494,495,495,494,494,494,494,495,495,498,499,500,500,502,0,0,709,709,709,0,0,0,0,0,0,0,0,0,0,0,0,715,714,714,714,714,714,714,714,714,714,714,713
1962,1969,1981,1994,2001,2007,2014,2014,2014,2027,2034,2027,2027,2027,2021,2021,2014,2007,2001,2001,1988,1975,1969,1962,1944,1937,1925,1919,1895,1884,1872,1855,1839,1806,1790,1780,1769,1754,1749,1739,1739,1734,1729,1729,1734,1739,1754,1764,1780,1795,1795,1785,1769,1754,1744,1739,1739,1725,1729,1734,1734,1744,1749,1754,1759,1764,1764,0,0,0,0,0,0,0,0,0,0,0,0,0,0,0,2572,2583,0,0,0,0,0,0,0,0,0,0,0,0,0,0,0,0,0,0,0,0,0,0,0,0,0,0,0,0,0,0,0,0,0,0,0,0,0,0,0,0,0,0,0,0,0,0,0,0,0,0,0,0,0,0,0,0,0,0,0,0,0,0,0,0,0,1919,1919,0,0,0,0,0,0,0,0,0,0,0,1969,1975,1988,2001,2014,2021,2021,2027,2027,2027,0,0,0,0,0,0,0,0,0,2041,2041,2034,2034,2034,2027,2027,2027,2014,2007,2001,2001,2001,0,0,0,0,0,0,0,0,0,0,0,0,0,0,0,0,0,0,0,0,0,0,0,0,0,0,0,0,0,0,502,501,501,500,498,497,495,491,0,0,476,473,471,469,468,467,466,466,466,467,469,470,472,474,478,479,483,485,486,488,490,491,493,494,495,496,495,496,495,495,495,493,493,493,493,493,492,491,492,493,493,493,493,494,494,494,0,494,494,494,495,495,499,501,501,501,503,0,0,714,711,715,0,0,0,729,731,0,0,0,726,0,0,0,0,717,717,716,716,717,717,717,717,716,716,716
1962,1969,1981,1988,2001,2007,2014,2014,2014,2027,2027,2027,2021,2021,2021,2021,2007,2001,2001,1994,1981,1969,1962,1950,1931,1925,1913,1913,1890,1878,1872,1855,1844,1811,1801,1790,1785,1764,1764,1754,1754,1744,1744,1744,1749,1754,1769,1780,1790,1811,1806,1795,1775,1764,1754,1754,1749,1739,1739,1739,1744,1749,1754,1759,1764,1769,1780,0,0,0,0,0,0,0,0,0,0,2449,2459,2489,2509,2551,2572,2594,2616,0,0,0,0,0,0,0,0,0,0,0,0,0,0,0,0,0,0,0,0,0,0,0,0,0,0,0,0,0,0,0,0,0,0,0,0,0,0,0,0,0,0,0,0,0,0,0,0,0,0,0,0,0,0,0,0,0,0,0,1913,1913,1907,1907,1907,1907,1907,1913,0,0,0,0,0,0,0,0,0,1950,1956,1981,1994,2001,2014,2014,0,0,0,0,0,0,0,0,0,0,0,0,0,0,0,0,2034,2027,2021,2021,2021,2014,2007,2001,2001,2001,0,0,0,0,0,0,0,0,0,0,0,0,0,0,0,0,0,0,0,0,0,0,0,0,0,0,0,0,0,0,503,0,0,0,498,497,494,491,488,0,478,476,473,472,471,469,468,468,468,468,469,471,0,473,478,479,481,484,486,487,0,0,492,493,494,495,494,495,495,495,495,494,494,494,494,494,493,495,495,495,495,494,494,494,495,0,0,494,495,0,0,497,500,502,503,503,504,505,0,718,719,720,723,725,728,731,731,731,730,729,728,728,725,0,720,720,719,718,718,719,719,719,719,719,718,718
1956,1962,1975,1981,1994,2007,2007,2007,2007,2014,2014,2014,2007,2007,2007,2007,2007,2001,1994,1988,1975,1969,1956,1950,1925,1919,1907,1901,1884,1872,1867,1855,1844,1822,1806,1795,1790,1780,1775,1764,1764,1759,1759,1775,1775,1780,1795,1801,1806,1822,1817,1806,1790,1780,1775,1769,1769,1769,1780,1790,1790,1801,1806,1806,1817,1850,1878,0,0,0,0,0,0,0,0,2439,2449,2459,2479,2489,2519,2551,2572,2583,2605,0,0,0,0,0,0,0,0,0,0,0,0,0,0,0,0,0,0,0,0,0,0,0,0,0,0,0,0,0,0,0,0,0,0,0,0,0,0,0,0,0,0,0,0,0,0,0,0,0,0,0,0,0,0,0,0,0,0,0,0,0,0,0,0,0,0,0,0,0,0,0,0,0,0,0,0,0,0,0,0,0,0,0,0,0,0,0,0,0,0,0,0,0,0,697,0,688,0,0,0,2027,2027,2021,2021,2014,2007,0,0,0,0,0,0,0,0,0,0,0,0,0,0,0,0,0,0,0,0,0,0,0,0,0,0,0,0,0,0,0,0,0,502,502,501,500,497,497,494,492,489,484,482,478,476,474,473,472,471,471,470,470,0,0,0,477,479,0,482,485,486,488,0,0,491,492,493,494,494,494,495,495,495,495,495,495,496,496,496,495,495,495,495,494,493,494,494,495,495,495,0,0,0,498,501,502,503,503,504,0,0,0,724,724,725,726,727,731,731,730,729,729,729,727,725,723,722,722,721,720,720,721,721,720,719,719,719,719
1944,1950,1969,1975,1988,1994,2001,2001,1994,2001,1994,1994,1994,1994,1994,1994,1994,1994,1994,1988,1975,1969,1956,1944,1925,1913,1907,1901,1884,1872,1867,1855,1844,1822,1811,1801,1795,1785,1785,1780,1780,1780,1780,1780,1780,1790,1801,1811,1811,1822,1822,1811,1795,1785,1785,1785,1785,1795,1811,1822,1828,1833,1844,1844,1861,1919,1975,0,0,0,0,0,2469,2459,2449,2439,2449,2459,2469,2499,2519,2551,2562,2572,2594,0,0,0,0,0,0,0,0,0,0,0,0,0,0,0,0,0,0,0,0,0,0,0,0,0,0,0,0,0,0,0,0,0,0,0,0,0,0,0,0,0,0,0,0,0,0,0,0,0,0,0,0,0,0,0,0,0,0,0,0,0,0,0,0,0,0,0,0,0,0,0,0,0,0,0,0,0,0,0,0,0,0,0,0,0,0,0,0,722,0,0,0,0,700,693,689,686,682,676,671,668,666,0,0,0,0,0,0,0,0,0,0,0,0,0,0,0,0,0,0,0,0,0,0,0,0,0,0,0,0,0,0,0,0,0,0,0,0,0,503,502,501,499,497,496,495,493,491,487,485,483,482,480,478,477,476,476,476,0,0,0,477,478,0,481,482,484,486,0,0,0,490,491,492,492,492,492,493,493,494,494,495,495,496,496,496,496,496,495,495,494,493,494,494,495,495,495,0,497,497,498,501,502,503,503,504,505,0,725,725,725,725,725,726,726,727,727,728,726,726,725,725,723,723,723,723,723,721,722,722,721,719,719,718,718
1931,1944,1962,1975,1981,1988,1994,1994,1994,1988,1988,1988,1988,1988,1988,1988,1988,1994,1988,1988,1975,1969,1956,1950,1925,1913,1907,1901,1884,1878,1867,1855,1844,1822,1811,1806,1795,1790,1790,1785,1785,1785,1790,1790,1790,1795,1806,1811,1817,1828,1822,1817,1801,1801,1801,1801,1806,1817,1833,1844,1850,0,0,0,0,0,0,2226,2310,2401,2499,2489,2479,2439,2410,2392,2401,2410,2429,2449,2459,2519,2551,2562,2583,2605,2594,0,0,0,0,0,0,0,0,0,0,0,0,0,0,0,0,0,0,0,0,0,0,0,0,0,0,0,0,0,0,0,0,0,0,0,0,0,0,0,0,0,0,0,0,0,0,0,0,0,0,0,0,0,0,0,0,0,0,0,0,485,484,483,0,0,0,0,0,0,0,0,0,0,0,0,0,0,741,741,740,740,739,734,733,730,725,721,711,707,705,701,699,691,687,684,679,674,669,666,665,665,665,667,668,668,668,0,0,0,0,0,0,0,0,0,0,0,0,0,0,0,0,0,0,0,0,0,0,0,0,0,0,0,0,0,0,0,503,502,501,500,497,496,495,493,492,488,487,486,484,483,480,479,478,478,478,477,477,0,478,0,479,0,0,0,0,0,0,0,0,488,489,490,490,490,0,491,492,493,494,495,496,497,497,496,495,494,494,493,493,493,494,494,494,494,495,495,497,498,501,501,503,503,504,506,0,725,725,725,726,725,725,725,726,0,726,725,724,725,0,722,723,722,723,722,722,722,721,719,718,717,716,717
1925,1937,1956,1969,1975,1981,1988,1988,1981,1981,1981,1981,1975,1975,1975,1981,1981,1981,1981,1981,1975,1969,1962,1950,1925,1919,1907,1901,1884,1872,1867,1855,1839,1817,1806,1795,1790,1785,1785,1785,1785,1785,1790,1790,1790,1790,1795,1795,1801,1801,1817,1817,1811,1811,1817,1822,1828,1844,1855,1867,1907,1884,1925,0,0,0,2075,2218,2284,2364,2479,2449,2410,2346,2337,2337,2346,2364,2392,2420,2449,2519,2551,2562,2572,2572,2562,0,0,0,0,0,0,0,0,0,0,0,0,0,0,0,0,0,0,0,0,0,0,0,0,0,0,0,0,0,0,0,0,0,0,0,0,0,0,0,0,0,0,0,0,0,0,0,0,0,512,0,0,511,0,507,0,0,493,488,486,485,484,484,484,0,0,0,0,0,0,0,0,738,738,737,736,737,737,738,737,738,737,734,732,729,726,722,711,708,705,700,697,688,684,680,676,672,668,665,665,665,666,668,668,668,668,668,668,0,0,0,0,0,0,0,0,0,0,0,0,0,0,0,0,0,0,0,0,0,0,0,0,0,0,0,0,0,503,503,501,499,497,496,495,494,493,491,489,488,486,485,482,481,481,480,479,479,478,0,478,479,479,480,480,481,481,482,482,484,485,485,486,487,488,488,487,487,487,488,489,494,493,495,495,495,496,495,495,494,493,494,494,493,493,493,495,495,496,497,500,501,503,503,504,0,0,725,727,726,727,0,0,725,725,0,0,725,725,725,0,722,722,722,723,723,722,721,721,720,718,718,717,716
1919,1931,1956,1962,1969,1975,1981,1981,1975,1975,1969,1969,1969,1969,1962,1969,1969,1969,1975,1975,1975,1969,1962,1950,1931,1925,1913,1907,1890,1878,1867,1861,1844,1822,1806,1795,1790,1780,1780,1780,1780,1785,0,0,0,0,0,0,1801,0,0,0,1833,1833,1844,1850,1861,1884,0,1907,1925,1925,0,0,0,2021,2141,2202,2251,2302,0,0,2293,2259,2259,2284,2302,2328,2392,2420,2449,0,2540,2551,2551,0,0,0,0,0,0,0,0,0,0,0,0,0,0,0,0,0,0,0,0,0,0,0,0,0,0,0,0,0,0,0,0,0,0,0,0,0,0,0,0,0,0,0,0,0,0,0,0,0,507,507,509,509,509,507,508,504,501,498,493,489,487,486,486,485,485,0,0,0,0,0,0,738,737,736,735,735,736,736,736,736,736,736,735,732,732,729,726,723,710,706,702,697,694,689,679,676,673,670,668,665,665,665,665,666,668,668,668,668,668,668,668,0,0,0,0,0,0,0,0,0,0,0,0,0,0,0,0,0,0,0,0,0,0,0,0,0,0,0,0,0,0,0,497,496,495,494,493,491,490,489,488,486,484,484,482,482,481,480,479,479,479,479,480,480,480,480,481,481,481,482,482,483,483,486,486,487,484,484,482,484,485,0,489,491,495,497,496,495,496,495,495,495,495,495,495,494,495,495,495,497,499,500,501,502,503,0,0,725,726,726,725,725,724,724,724,724,724,723,723,723,722,722,721,722,722,722,722,721,719,718,716,715,714,714
1907,1919,1944,1956,1962,1969,1969,1969,1962,1962,1956,1950,1950,1950,1950,1950,1956,1969,1969,1975,1975,1975,1975,1969,1950,1944,1937,1925,1907,1895,1884,1872,1855,1822,1811,1795,1790,1785,1780,1780,1785,1790,0,0,0,0,0,0,0,1806,1811,1817,1822,1839,1844,1850,1861,1884,0,0,0,0,0,0,0,0,0,0,0,0,0,0,2251,2234,2234,2251,2276,2310,2382,0,0,0,0,0,0,0,0,0,0,0,0,0,0,0,0,0,0,0,0,0,0,0,0,0,0,0,0,0,0,0,0,0,0,0,0,0,0,0,0,0,0,0,0,523,523,522,520,0,0,0,509,0,0,504,505,0,506,507,506,506,503,501,499,496,493,489,487,487,486,486,486,0,0,0,742,741,739,736,735,735,735,734,734,734,735,734,735,735,734,733,731,730,726,724,710,705,700,694,690,686,676,672,669,667,665,664,663,665,665,666,668,668,668,667,667,665,665,665,0,0,0,0,0,0,0,0,0,0,0,0,0,0,0,0,0,0,0,0,0,0,0,0,0,0,0,0,0,0,0,495,495,494,493,493,492,491,490,489,487,486,486,484,483,482,481,481,479,479,479,479,479,480,480,480,480,481,481,481,482,484,485,485,0,480,477,478,0,0,482,486,489,494,495,495,496,496,496,496,496,495,495,494,494,494,495,495,497,498,500,0,0,0,0,724,725,726,725,723,722,720,720,719,719,719,719,719,718,718,718,719,719,719,719,719,718,717,715,714,714,713
1901,1913,1937,1950,1956,1962,1962,1962,1956,1950,1950,1944,1944,1944,1944,1950,1950,1956,1969,1975,1981,1981,1981,1981,1962,1956,1950,1937,1913,1901,1895,1878,1861,1828,1811,1795,1790,1785,1780,1785,1785,1795,1801,1806,1801,1795,1795,1795,1790,1790,1801,1806,1811,1822,1833,1844,1855,1878,1895,1907,1907,1913,1919,1913,1937,1962,1937,1969,0,0,0,2163,0,0,2141,2156,2171,2210,2355,0,0,0,0,0,0,0,0,0,0,0,0,0,0,0,0,0,0,0,0,0,0,0,0,0,0,0,0,0,0,0,0,0,0,0,0,0,526,526,525,524,524,524,523,522,522,521,519,514,511,0,504,501,500,501,0,0,503,504,504,503,500,499,497,495,493,489,488,487,487,486,487,0,744,742,741,739,738,736,735,733,734,732,733,732,732,732,732,732,732,732,730,729,728,725,711,706,698,690,680,0,668,663,660,660,661,661,662,663,663,664,666,666,665,665,665,0,0,0,0,0,0,0,0,0,0,0,0,0,0,0,0,0,0,0,0,0,0,0,0,0,0,0,0,0,0,0,0,0,0,495,495,494,494,493,493,492,491,490,489,488,487,486,484,483,482,481,480,480,479,480,479,479,479,479,479,479,479,479,480,481,481,481,0,0,472,472,0,0,476,479,483,491,491,491,494,495,495,495,496,495,494,493,492,492,491,492,493,495,499,0,718,719,719,721,722,722,723,0,0,719,719,718,718,717,716,715,716,716,715,715,716,717,717,717,716,715,714,714,713,712
1895,1907,1931,1944,1950,1956,1956,1956,1956,1950,1944,1944,1944,1937,1944,1944,1950,1950,1969,1969,1981,1981,1988,1981,1975,1969,1962,1950,1925,1913,1901,1884,1861,1828,1806,1795,1790,1780,1780,1780,1785,1780,1795,1790,1790,1780,1780,1775,1769,1769,1775,1780,1785,1790,1811,1817,1828,1844,1855,1855,1855,1855,1861,1855,1855,1878,1895,1913,0,0,2082,0,0,0,0,0,0,0,0,0,0,0,0,0,0,0,0,0,0,0,0,0,0,0,0,0,0,0,0,0,0,0,0,0,0,530,530,530,530,529,528,527,526,526,525,525,524,523,523,522,521,522,521,521,520,519,517,511,508,504,0,0,497,497,498,0,502,503,503,502,500,0,0,494,493,489,488,488,487,487,487,487,743,741,740,739,736,734,731,731,731,730,729,728,728,728,728,729,728,729,729,729,728,726,0,0,0,684,676,668,663,658,658,659,660,660,661,662,663,663,665,664,664,663,663,663,661,660,657,0,0,0,0,0,0,0,0,0,0,0,0,0,0,0,0,0,0,0,0,0,0,0,0,0,0,0,0,0,0,0,0,495,495,494,494,493,492,491,490,489,488,487,484,483,482,481,480,480,479,479,479,479,479,479,478,478,477,476,476,475,475,475,0,0,0,463,465,466,468,475,476,480,0,489,0,494,495,495,496,495,494,492,491,0,491,0,491,494,0,0,716,718,719,719,721,720,0,0,719,719,718,718,716,716,714,714,714,714,713,714,714,714,715,715,715,715,714,714,713,711
1890,1901,1925,1937,1944,1950,1956,1956,1950,1950,1944,1937,1937,1937,1937,1937,1944,1950,1956,1969,1975,1981,1981,1981,1975,1975,1962,1956,1931,1919,1901,1890,1872,1833,1811,1795,1790,1780,1780,1780,1780,1785,1785,1785,1780,1780,1775,1764,1769,1764,1764,1769,1775,1780,1795,1801,1811,1822,1828,1833,1833,1833,1839,1839,1839,1844,1844,1850,0,0,0,0,0,0,0,0,0,0,0,0,0,0,0,0,0,0,0,0,0,0,0,0,0,0,0,0,0,0,0,0,0,0,0,528,529,529,529,529,529,528,526,526,525,525,524,524,523,523,522,521,521,521,521,519,519,517,515,512,505,502,498,495,494,493,493,494,495,497,501,501,499,496,495,493,491,490,489,489,489,489,489,489,742,741,739,738,736,734,731,730,729,728,727,726,726,726,726,726,726,727,728,726,725,722,0,0,0,0,668,661,658,657,657,658,659,660,661,661,662,662,663,663,662,661,661,660,660,657,655,655,653,654,655,0,655,0,0,0,664,665,0,669,670,673,0,0,0,0,0,0,0,0,0,0,0,0,0,0,0,0,496,496,495,495,495,494,494,492,491,490,489,487,485,484,483,482,480,480,479,479,479,479,479,479,478,477,476,476,475,474,473,473,0,0,0,461,462,463,465,0,472,476,484,486,0,0,494,495,496,495,494,491,491,0,490,0,490,491,0,0,716,716,717,718,719,718,0,0,0,717,716,716,716,714,714,713,712,711,711,711,712,713,714,714,714,714,714,713,711,709
1884,1901,1925,1937,1944,1950,1956,1956,1950,1944,1944,1944,1937,1937,1937,1937,1944,1944,1962,1969,1975,1981,1988,1988,1988,1981,1975,1969,1944,1925,1913,1895,1872,1828,1811,1795,1790,1780,1780,1785,1785,1785,1785,1785,1780,1775,1769,1764,1759,1759,1754,1754,1759,1764,1775,1785,1795,1801,1811,1817,1822,1828,1828,1828,1833,1844,1844,0,0,0,0,0,0,0,0,0,0,0,0,0,0,0,0,0,0,0,0,0,0,0,0,0,0,0,0,0,0,523,524,525,526,525,526,527,527,528,528,528,528,527,526,525,525,525,524,524,523,523,522,521,521,521,521,519,518,516,514,511,505,501,499,496,495,492,492,494,0,0,0,0,0,500,497,495,492,489,489,489,490,489,489,489,742,741,739,738,736,734,730,729,727,726,725,725,725,724,725,725,725,725,723,721,719,715,709,0,0,671,0,0,656,655,655,657,658,660,660,660,660,660,660,660,660,658,658,655,655,653,653,652,651,651,651,651,651,653,0,659,660,663,665,666,667,0,0,0,688,0,0,0,0,0,0,0,0,0,0,0,0,0,0,0,499,498,497,497,496,494,493,492,490,488,487,485,484,483,481,480,480,480,479,479,479,479,478,477,476,476,475,473,472,472,469,466,464,461,461,462,464,468,471,475,481,484,486,492,493,495,496,495,494,492,491,490,490,0,489,0,0,0,0,717,716,717,718,718,0,0,716,716,716,714,714,713,711,710,709,709,708,709,710,711,713,714,714,715,715,713,712,709
1890,1901,1925,1937,1944,1950,1956,1956,1956,1950,1944,1944,1944,1937,1937,1937,1937,1944,1962,1962,1975,1988,1988,1994,1988,1988,1981,1975,1950,1937,1919,1895,1872,1828,1811,1801,1790,1780,1785,1785,1790,1785,1785,1785,1780,1769,1764,1759,1754,1749,1749,1749,1744,1749,1759,1769,1775,1780,1795,1801,1806,1817,1822,1828,1833,1844,0,0,0,0,0,0,0,0,0,0,0,0,0,0,0,0,0,0,0,0,0,0,0,0,0,0,0,0,0,0,0,0,523,524,526,525,526,527,527,528,528,527,528,527,526,526,525,525,524,523,522,522,521,521,520,520,519,518,518,515,514,512,506,503,501,499,499,498,498,0,502,0,0,0,0,0,0,0,496,491,491,490,490,490,490,490,742,740,739,737,735,732,729,728,727,725,724,723,723,723,722,721,721,717,714,711,708,704,697,692,676,0,0,658,657,656,656,658,658,659,659,658,658,656,655,655,654,653,653,653,653,653,652,651,651,651,650,650,651,652,655,658,659,660,664,665,666,0,0,0,0,0,0,0,0,0,0,0,0,0,0,0,0,0,0,0,0,500,499,498,497,495,494,493,491,488,487,486,485,483,481,481,481,481,480,480,480,479,479,478,476,476,475,473,472,471,469,466,464,0,461,462,464,467,471,473,480,481,484,490,492,494,497,496,494,493,491,491,490,489,488,0,0,0,0,0,714,714,716,715,715,715,0,0,716,716,715,714,713,711,709,708,707,709,709,711,713,715,716,717,716,714,712,709
1895,1907,1931,1944,1950,1956,1956,1956,1956,1956,1950,1950,1944,1937,1937,1944,1944,1950,1962,1969,1975,1988,1988,1994,1988,1981,1975,1969,1944,1925,1913,1890,1867,1828,1806,1806,1795,1790,1790,1790,1790,1790,1785,1780,1775,1764,1759,1749,1744,1734,1734,1729,1729,1729,1734,1739,1744,1754,1775,1785,1790,1795,1811,1822,1833,0,0,0,0,0,0,0,0,0,0,0,0,0,0,0,0,0,0,0,0,0,0,0,0,0,0,0,0,0,0,521,521,522,523,524,525,525,526,526,527,527,527,527,526,526,525,524,524,524,523,522,522,521,521,520,520,519,519,518,0,0,515,513,508,0,505,503,503,503,504,506,508,0,0,0,0,0,0,0,0,495,493,492,491,491,491,491,743,740,739,737,735,732,727,725,724,722,719,718,718,717,715,714,714,712,711,706,0,699,693,689,676,669,665,661,660,658,658,658,659,658,658,657,656,654,653,652,651,651,651,651,650,650,650,649,649,649,649,650,650,651,654,655,658,660,663,663,665,0,0,0,0,0,0,0,0,0,0,0,0,0,0,0,0,0,0,0,0,501,500,499,498,496,495,493,492,489,488,486,485,484,482,482,482,481,481,481,481,481,480,478,477,476,475,473,471,471,469,467,465,462,462,463,465,467,471,472,478,480,482,489,491,493,496,496,495,494,493,491,490,489,0,0,0,0,0,0,713,714,715,714,715,714,714,715,716,716,716,714,714,710,709,709,707,708,709,711,712,715,716,717,716,714,710,709
1901,1919,1937,1950,1956,1962,1962,1962,1962,1956,1956,1956,1950,1944,1944,1950,1950,1950,1962,1969,1975,1981,1988,1981,1975,1962,1962,1950,1931,1907,1895,1884,1861,1828,1811,1811,1806,1795,1795,1806,1806,1801,1795,1785,1780,1764,1759,1749,1744,1734,1734,1729,1725,1725,1725,1729,1734,1744,1764,1775,1785,1790,0,0,0,0,0,0,0,0,0,0,0,0,0,0,0,0,0,0,0,0,0,0,0,0,0,0,0,0,0,0,0,517,518,519,521,522,522,523,525,525,526,526,526,526,526,526,526,525,525,524,523,522,522,521,521,520,520,519,519,519,519,518,518,518,516,517,514,513,512,0,507,508,509,511,0,0,531,534,533,531,0,0,0,0,499,495,493,492,492,492,745,743,740,737,734,731,727,725,721,719,716,715,714,714,713,711,709,708,706,701,698,693,689,686,675,671,666,663,661,659,658,658,658,658,657,655,654,652,651,650,649,649,648,648,648,648,648,647,647,648,648,648,649,649,651,654,655,658,660,662,663,665,0,0,0,0,0,0,0,0,0,0,0,0,0,0,0,0,0,503,503,501,501,500,499,497,496,494,493,490,488,487,486,484,483,484,484,484,484,484,483,483,481,479,478,477,476,473,472,471,0,468,466,465,0,0,468,469,471,473,477,479,481,487,489,491,496,495,495,493,492,492,491,490,0,0,0,0,0,0,0,0,714,714,714,714,714,714,716,715,715,714,713,709,708,707,706,706,708,709,711,714,714,714,713,710,707,705
1919,1931,1950,1956,1962,1969,1969,1969,1969,1962,1956,1956,1956,1950,1950,1950,1950,1950,1962,1969,1975,1975,1975,1969,1962,1950,1944,1931,1919,1895,1884,1872,1855,1833,1828,1828,1828,1817,1817,1817,1817,1806,1801,1795,1790,1769,1759,1749,1744,1734,1729,1725,1725,1725,1725,1725,1734,1739,1759,1769,1780,0,0,0,0,0,0,0,0,0,0,0,0,0,0,0,0,0,0,0,0,0,0,0,0,0,0,0,0,0,0,0,512,515,516,518,521,521,522,523,524,525,525,526,526,526,526,526,526,525,525,524,523,523,522,521,521,521,521,521,521,521,521,521,522,522,521,520,519,518,517,516,517,518,519,521,527,530,533,536,536,534,528,0,0,0,0,497,494,493,493,492,493,744,0,737,734,731,725,722,719,717,715,713,712,711,709,707,705,704,701,697,693,689,686,682,674,671,668,664,663,660,659,658,658,656,655,654,653,651,649,648,646,646,645,643,644,644,644,644,644,644,645,646,646,647,648,650,651,653,654,657,658,661,0,0,0,0,0,0,0,0,0,0,0,0,0,0,0,0,0,504,503,503,502,501,500,499,498,496,495,491,490,489,487,486,485,485,485,485,485,485,484,484,482,480,479,478,476,473,472,471,0,469,467,467,467,468,469,470,472,473,0,478,480,482,487,489,493,495,494,494,493,492,491,490,0,0,0,0,0,0,0,0,0,713,713,0,0,0,713,714,714,713,709,709,707,706,705,705,707,709,709,711,711,711,710,705,703,700
1913,1931,1956,1969,1975,1981,1981,1975,1975,1969,1962,1956,1956,1944,1944,1944,1944,1950,1956,1962,1962,1962,1962,1956,1944,1925,1919,1913,1901,1884,1872,1867,1850,1839,1839,1833,1839,1833,1833,1833,1833,1817,1811,1801,1795,1769,1764,1754,1744,1739,1734,1729,1725,1720,1720,1725,1729,1734,0,0,0,0,0,0,0,0,0,0,0,0,0,0,0,0,0,0,0,0,0,0,0,0,0,0,0,507,508,508,508,508,509,511,512,514,516,518,521,521,522,523,525,525,525,526,526,526,526,526,526,526,525,525,524,524,524,523,522,522,522,522,522,522,523,523,524,524,525,524,523,522,522,522,523,524,525,528,530,532,534,536,536,535,531,524,516,0,0,497,495,493,493,493,493,745,0,738,734,730,724,720,717,714,712,709,709,708,706,704,701,695,693,689,683,680,678,675,673,670,668,665,663,660,659,658,655,654,651,650,649,647,644,643,642,642,641,641,641,642,642,642,642,642,643,644,645,646,646,647,649,651,652,655,655,660,686,719,725,0,0,0,0,0,0,0,0,0,0,0,0,0,0,0,504,504,503,502,501,500,499,497,495,492,491,490,489,487,486,486,486,486,486,486,486,485,483,481,480,479,477,475,473,472,0,469,468,468,468,0,471,0,472,473,0,0,477,479,485,485,489,492,491,490,491,0,0,491,0,0,0,0,0,0,0,0,0,0,711,0,0,0,0,0,0,0,709,708,707,707,706,706,708,709,709,709,709,709,708,704,0,0
1907,1919,1950,1962,1969,1975,1981,1975,1975,1969,1962,1956,1950,1937,1937,1937,1944,1944,1950,1950,1956,1950,1944,1937,1931,1913,1901,1895,1884,1872,1867,1861,1850,1844,1839,1844,1844,1844,1844,1844,1844,1833,1822,1811,1801,1780,1764,1759,1749,1739,1734,1729,1725,1720,1720,1720,0,0,0,0,0,0,0,0,0,0,0,0,0,0,0,0,0,0,0,0,0,0,0,0,0,502,504,505,505,506,506,507,507,508,509,510,511,514,516,517,521,521,522,523,525,525,526,526,526,526,526,526,527,526,526,526,526,525,524,523,523,523,523,522,523,524,524,525,526,526,527,528,527,527,527,528,528,529,530,531,533,534,536,536,536,535,533,526,519,511,0,498,495,494,494,493,493,493,739,733,729,725,718,714,710,708,706,704,702,701,700,697,695,692,689,686,682,679,677,675,674,671,669,668,665,661,658,656,654,652,649,648,646,644,642,641,640,640,640,640,640,640,640,640,641,641,642,643,644,644,644,645,647,649,650,653,654,0,0,0,0,0,0,0,0,0,0,0,0,0,0,0,0,0,0,0,505,504,504,503,502,501,500,498,497,493,492,491,490,489,488,488,488,488,487,487,487,486,484,482,481,480,478,476,475,473,472,470,469,469,469,0,470,471,472,472,474,475,476,478,0,482,485,489,489,488,489,0,0,0,0,0,0,0,0,0,0,0,0,0,0,0,0,0,0,0,0,0,709,708,708,708,708,708,709,709,709,709,707,707,706,702,0,0
1895,1907,1925,1950,1956,1962,1969,1969,1969,1962,1956,1944,1937,1931,1931,1931,1931,1931,1931,1931,1931,1919,1913,1907,1890,1872,1867,1861,1855,1850,1844,1850,1850,1844,1844,1844,1850,1850,1861,1861,1861,1850,1844,1833,1817,1806,0,0,0,0,0,0,0,0,0,0,0,0,0,0,0,0,0,0,0,0,0,0,0,0,0,0,0,0,0,498,498,498,499,499,500,501,503,504,504,506,506,506,506,507,508,509,510,513,514,516,520,521,523,524,525,526,526,526,527,527,527,527,526,526,526,526,525,524,524,523,523,522,522,522,523,524,525,526,526,527,527,528,528,529,530,530,530,531,532,533,534,534,535,536,536,535,531,525,0,0,0,499,496,494,494,494,493,493,734,730,725,721,718,711,707,705,703,700,700,698,697,696,692,689,688,685,681,679,678,676,674,673,671,668,666,660,658,655,653,650,647,645,644,643,640,640,639,638,638,638,638,638,638,639,640,640,640,642,642,643,642,644,645,647,649,651,653,0,0,0,0,727,0,0,0,0,0,0,0,0,0,0,0,0,0,0,505,506,505,505,503,503,501,500,498,494,493,492,491,490,489,489,491,490,490,489,489,488,486,484,483,482,480,478,477,475,473,472,470,469,470,0,469,470,0,0,473,474,475,476,0,0,486,486,485,486,0,490,0,0,0,0,0,0,0,0,0,0,0,0,0,0,0,0,0,711,0,0,709,709,709,709,709,709,709,709,709,708,706,705,705,701,0,0
1872,1884,1895,1919,1931,1937,1950,1950,1950,1950,1944,1944,1931,1925,1925,1919,1919,1919,1919,1919,1919,1907,1895,1890,1878,1861,1855,1850,1844,1844,1844,1844,1844,1855,1855,1855,1861,1867,1872,1872,1872,1861,1855,0,0,0,0,0,0,0,0,0,0,0,0,0,0,0,0,0,0,0,0,0,0,0,0,0,0,0,0,0,0,497,497,497,497,498,498,499,500,501,503,503,504,505,506,506,506,506,508,507,508,510,511,513,515,519,521,523,526,526,527,527,527,527,526,526,525,524,524,523,523,522,522,522,522,522,522,522,524,524,525,526,527,527,528,529,529,529,530,530,531,531,532,533,534,534,535,536,535,533,527,0,0,0,0,499,496,494,494,494,494,494,730,725,721,718,714,708,704,702,700,698,697,697,695,694,690,689,687,685,682,680,679,678,676,674,672,669,666,660,657,654,651,649,644,643,642,640,639,638,638,637,637,635,635,636,636,636,637,637,638,639,640,640,640,640,642,644,646,649,652,663,0,723,729,728,727,0,0,0,0,0,0,0,0,0,0,0,0,0,0,507,507,507,506,505,505,503,501,498,497,496,495,493,493,492,491,491,490,489,489,488,486,485,484,482,481,479,478,476,473,472,471,470,470,469,469,0,0,0,473,473,475,475,0,0,0,482,483,483,487,0,0,0,0,646,0,0,0,0,0,0,0,0,0,0,0,0,0,0,0,0,0,708,708,709,709,709,709,708,707,705,702,700,700,697,695,693
1850,1867,1878,1901,1913,1925,1931,1937,1944,1937,1937,1931,1931,1919,1919,1919,1913,1913,1913,1907,1907,1895,1890,1878,1867,1855,1850,1844,1844,1839,1839,1844,1850,1850,1861,1861,1867,1872,1878,1878,1872,1872,0,0,0,0,0,0,0,0,0,0,0,0,0,0,0,0,0,0,0,0,0,0,0,0,0,0,0,0,497,496,495,496,496,497,497,497,498,499,500,501,502,503,504,505,506,506,506,506,506,507,507,509,511,513,518,520,521,523,526,526,526,526,526,526,525,524,524,523,522,522,522,521,522,521,521,522,522,522,524,524,525,526,527,528,528,529,529,529,530,530,531,531,531,533,534,534,535,536,535,532,523,0,0,0,501,498,496,495,495,494,494,494,726,721,718,714,711,705,701,700,698,697,696,695,694,693,690,688,686,685,683,681,680,679,677,676,674,671,667,659,655,651,648,644,640,640,638,637,637,636,635,635,634,634,634,634,635,635,636,636,637,638,638,638,638,638,642,644,646,648,652,663,0,711,731,731,729,728,0,0,0,0,0,0,0,0,0,0,0,0,0,509,509,508,507,507,506,504,503,500,499,497,496,494,493,493,492,492,491,489,489,488,486,485,484,483,482,480,479,477,475,473,471,470,470,0,469,0,0,0,473,473,474,474,474,475,477,478,478,479,0,0,0,0,646,648,0,0,0,0,0,0,0,0,0,0,0,0,0,0,0,0,0,707,708,709,709,709,709,707,706,703,701,700,700,696,694,693
1839,1844,1855,1884,1895,1907,1913,1925,1931,1931,1931,1925,1925,1913,1913,1907,1907,1901,1901,1901,1901,1890,1884,1878,1867,1850,1844,1844,1839,1833,1839,1839,1844,1850,1855,1861,1861,1861,1878,1878,0,0,0,0,0,0,0,0,0,0,0,0,0,0,0,0,0,0,0,0,0,0,0,0,0,0,500,499,498,497,496,496,495,495,496,496,497,497,497,499,500,500,502,503,503,504,505,506,506,506,506,507,508,508,511,513,515,520,521,523,525,526,525,525,525,524,524,523,522,522,521,521,521,521,521,521,522,522,522,523,524,524,525,526,527,527,527,528,528,529,529,530,530,531,531,533,534,534,535,0,0,0,525,0,505,501,498,496,495,495,495,495,494,494,721,712,709,706,704,700,697,696,695,694,693,693,693,692,690,689,688,686,685,684,683,683,681,679,676,672,668,659,655,650,646,642,639,638,637,636,636,634,634,634,634,633,633,634,634,634,635,636,636,636,637,637,637,638,640,643,645,648,653,665,0,722,731,731,730,728,0,0,0,0,0,0,0,0,0,0,0,0,0,0,511,511,510,508,508,506,503,501,499,498,497,495,494,493,492,491,490,490,489,488,486,485,484,483,482,481,479,478,476,474,472,471,471,0,470,0,0,0,474,474,474,473,0,474,475,475,476,0,0,0,0,0,651,651,0,0,0,0,0,0,0,0,0,0,0,0,0,0,0,0,707,709,709,710,710,710,710,709,0,705,703,702,700,698,697,695
1817,1828,1839,1867,1878,1890,1901,1913,1919,1925,1913,1913,1907,1901,1901,1901,1895,1895,1890,1890,1884,1878,1872,1867,1861,1850,1844,1844,1844,1839,1839,1839,1839,1844,1850,1855,0,0,0,0,0,0,0,0,0,0,0,0,0,0,0,0,0,0,0,0,0,0,0,0,0,0,0,501,501,501,499,498,497,497,496,495,495,495,495,495,496,496,497,499,499,500,502,502,503,504,505,505,506,506,506,507,507,508,511,513,516,519,520,522,523,524,523,523,523,522,522,521,521,521,521,520,520,520,521,521,520,521,521,521,523,524,524,525,526,526,526,526,526,527,527,528,528,529,530,0,0,0,0,0,0,0,0,0,501,499,497,495,495,495,495,495,495,494,0,707,705,702,700,698,695,694,693,693,693,693,692,692,690,689,689,687,686,685,685,684,683,681,677,672,668,658,653,649,644,640,638,636,636,635,634,634,634,633,633,633,633,633,633,633,634,634,635,636,636,636,637,637,640,642,645,648,653,665,0,709,731,731,728,0,0,0,0,0,0,0,0,0,0,0,0,519,0,0,515,513,512,511,510,508,504,502,500,498,497,494,493,493,492,491,490,489,488,487,486,486,484,484,483,482,481,479,478,476,475,473,473,0,473,0,0,475,475,475,0,475,473,474,475,475,475,0,476,477,0,0,653,654,0,0,0,0,0,0,0,0,0,0,0,0,0,0,0,707,0,710,710,711,712,712,711,710,0,707,705,704,703,700,698,697
1801,1806,1817,1833,1850,1855,1867,1884,1895,1901,1907,1907,1907,1901,1901,1895,1890,1890,1890,1884,1884,1878,1872,1867,1867,1855,1850,1850,1844,1844,1839,1839,1839,0,0,0,0,0,0,0,0,0,0,0,0,0,0,0,0,0,0,0,0,0,0,0,0,0,0,0,0,0,501,501,501,500,499,498,497,497,495,495,495,494,494,495,495,495,496,498,498,499,500,502,503,504,505,506,506,507,507,508,508,509,511,512,513,516,517,518,518,520,520,520,520,520,520,519,518,518,518,518,518,518,518,519,520,520,521,521,523,524,524,525,526,526,526,526,526,526,526,526,527,527,0,0,0,0,0,0,0,0,0,0,0,497,496,495,495,495,495,495,495,495,494,0,0,697,696,695,693,692,692,691,691,691,691,691,690,689,689,688,687,686,686,686,684,683,678,673,668,662,652,646,642,639,637,635,634,634,634,633,633,633,632,632,632,632,632,632,633,633,634,634,634,634,634,636,639,641,644,648,654,668,0,708,726,726,725,0,0,0,0,0,0,0,0,0,0,0,0,522,521,521,521,518,516,514,513,511,506,503,501,498,497,494,493,492,491,491,489,489,487,487,486,485,484,484,484,482,482,480,479,477,476,474,0,0,474,0,0,475,476,0,476,476,475,0,476,476,0,0,475,0,0,0,655,655,0,656,0,0,0,0,0,0,0,0,0,0,0,0,0,0,709,710,708,709,709,709,709,710,709,709,707,705,705,700,697,695
1801,1806,1817,1833,1844,1850,1861,1878,1890,1895,1901,1901,1901,1901,1901,1895,1895,1890,1884,1884,1884,1878,1872,1872,1861,1855,1855,1850,1844,1844,1839,0,0,0,0,0,0,0,0,0,0,0,0,0,0,0,0,0,0,0,0,0,0,0,0,0,0,0,0,0,0,0,501,500,500,500,499,498,497,496,495,495,494,494,494,494,494,495,495,497,498,499,500,502,503,504,506,507,507,508,508,509,509,509,510,511,512,514,514,516,517,518,518,518,518,518,518,518,517,517,517,517,517,518,518,518,520,520,521,521,523,524,524,525,525,525,525,525,525,525,525,525,526,526,526,0,0,0,0,0,0,0,0,0,0,496,495,495,495,495,495,495,495,495,495,696,693,693,692,692,690,690,690,689,689,690,690,690,689,689,689,689,688,687,687,686,685,683,677,671,665,659,649,643,639,636,635,634,633,632,632,632,632,632,632,631,631,631,631,632,632,633,633,633,633,633,634,634,638,641,643,649,654,665,0,706,725,725,725,0,0,0,0,0,0,0,0,0,0,0,525,524,523,522,522,519,518,516,514,512,507,504,501,499,497,493,492,491,490,490,488,487,487,487,486,485,484,484,484,483,482,481,480,479,477,476,0,476,476,0,476,476,477,0,477,476,476,476,476,476,476,477,476,0,0,0,659,665,668,671,674,0,0,0,0,0,0,0,0,0,0,0,0,0,0,707,706,707,708,708,709,709,709,709,708,706,705,700,697,694
1801,1806,1811,1817,1839,1844,1850,1872,1878,1890,1895,1901,1901,1901,1895,1890,1890,1884,1884,1884,1884,1878,1872,1872,1867,1855,1855,1855,1850,1850,0,0,0,0,0,0,0,0,0,0,0,0,0,0,0,0,0,0,0,0,0,0,0,0,0,0,0,0,0,0,493,497,499,500,500,500,499,498,497,497,495,495,495,494,494,494,494,495,495,497,498,499,500,503,505,506,508,508,509,509,509,509,509,509,510,511,511,512,513,514,514,515,515,516,516,516,516,516,516,516,516,516,517,517,518,518,520,521,521,522,523,524,524,525,525,525,525,525,524,524,524,523,524,524,0,0,0,0,0,0,0,0,0,0,0,495,495,495,495,495,495,495,495,495,495,0,688,687,687,686,686,686,686,686,686,686,686,687,687,688,688,688,688,688,687,686,684,681,675,668,662,656,646,642,638,636,634,633,632,632,632,632,632,631,631,631,631,631,631,631,632,632,632,632,632,632,633,634,638,640,642,648,655,665,0,714,724,724,724,722,0,0,0,0,0,0,0,0,0,0,0,525,524,524,523,521,519,517,515,512,508,505,502,499,497,493,492,491,490,488,487,486,486,486,485,485,484,484,484,484,483,482,481,479,478,477,0,476,477,478,478,477,478,478,478,478,477,477,0,478,478,478,0,0,0,0,0,0,0,0,0,0,0,0,0,0,0,0,0,0,0,0,0,0,0,705,704,705,706,706,708,709,709,709,708,706,705,699,696,693
1801,1806,1811,1817,1833,1839,1844,1861,1872,1878,1884,1890,1895,1895,1890,1884,1878,1878,1878,1872,1872,1867,1867,1867,1867,1861,1855,1855,0,0,0,0,0,0,0,0,0,0,0,0,0,0,0,0,0,0,0,0,0,0,0,0,0,0,0,0,0,469,475,480,0,0,0,499,499,499,498,497,497,497,496,495,495,495,495,495,495,495,496,497,499,500,501,504,505,507,508,509,510,510,510,510,510,509,510,510,511,511,511,512,512,513,514,513,514,514,514,514,514,515,515,516,516,517,518,519,520,521,521,522,523,524,524,525,525,525,525,524,524,523,523,523,523,0,0,0,0,0,0,0,0,0,0,0,497,496,495,495,495,495,495,495,495,495,495,495,0,687,686,686,685,685,685,684,684,685,685,685,685,686,686,686,687,687,687,686,682,678,672,666,660,654,644,640,637,635,634,632,632,632,632,632,631,631,631,631,631,631,631,631,631,632,632,632,632,632,632,634,638,639,642,649,0,666,0,701,720,721,721,720,0,0,0,0,0,0,0,0,0,0,526,525,525,524,524,521,520,518,515,512,508,504,502,499,497,493,491,489,488,488,487,486,486,486,485,485,485,485,485,485,484,483,483,482,481,479,0,479,479,479,479,0,479,479,478,478,0,478,479,479,479,0,0,0,0,0,0,0,0,0,0,0,0,0,0,0,0,0,0,0,0,0,0,0,0,0,702,702,704,705,706,708,708,709,708,706,705,699,695,692
1801,1801,1806,1811,1822,1828,1839,1855,1867,1872,1878,1884,1884,1884,1884,1878,1872,1872,1867,1867,1867,1867,1861,0,0,0,0,0,0,0,0,0,0,0,0,0,0,0,0,0,0,0,0,0,0,0,0,0,0,0,0,0,0,0,0,0,469,470,476,481,0,0,499,499,499,499,498,498,497,497,497,496,496,496,495,496,496,496,497,499,500,501,503,505,506,507,508,509,510,510,510,510,510,510,510,509,509,509,509,510,510,510,511,511,512,514,514,514,514,515,515,516,516,518,518,520,521,522,522,523,525,525,525,526,526,525,526,525,525,524,523,523,0,0,0,0,0,0,0,0,0,0,0,0,496,495,495,496,495,495,495,495,495,495,495,495,0,686,686,686,684,684,684,683,683,683,683,683,683,684,684,685,686,686,685,684,683,675,669,663,657,651,642,638,636,634,634,632,632,632,632,631,631,631,631,631,631,631,631,631,631,631,631,631,631,631,631,632,636,638,641,650,0,668,0,0,0,0,718,717,0,0,0,0,0,0,0,0,0,0,526,526,526,525,525,521,520,518,515,512,508,505,502,0,0,0,0,490,489,489,487,487,486,486,486,486,486,486,486,486,485,484,484,482,481,481,0,479,480,0,479,479,480,480,480,479,479,479,480,480,480,479,479,0,0,0,0,0,0,0,0,0,0,0,0,0,0,0,0,0,0,0,0,0,0,699,700,700,701,703,705,707,708,707,707,705,704,699,696,692
1795,1801,1806,1811,1817,1822,1833,1850,1855,1867,1872,1878,1878,1884,1884,1872,1872,1867,1861,1861,1861,0,0,0,0,0,0,0,0,0,0,0,0,0,0,0,0,0,0,0,0,0,0,0,0,0,0,0,0,0,0,0,0,469,468,469,469,470,476,0,490,491,495,496,497,497,497,497,497,497,497,497,497,497,497,497,496,497,497,499,500,501,503,505,506,507,508,508,509,509,509,510,509,509,509,508,508,508,508,508,509,509,510,511,512,513,514,514,515,516,517,517,518,519,520,520,521,523,523,524,525,526,526,526,526,526,526,526,525,525,525,524,0,0,0,0,0,0,0,0,0,0,0,496,496,495,495,495,495,495,495,495,495,495,495,495,689,688,688,687,685,684,683,683,682,681,681,681,680,680,682,683,684,683,683,683,679,671,664,660,651,646,643,637,636,634,633,632,632,632,632,631,631,631,631,631,631,631,631,631,631,631,631,631,631,630,631,631,635,638,641,653,660,668,0,691,697,0,0,0,0,0,0,0,0,0,0,0,0,0,526,526,525,525,524,521,519,517,0,512,508,505,0,0,0,0,0,0,0,489,488,488,487,487,487,487,486,486,487,486,486,485,485,483,0,0,0,480,480,480,479,479,480,480,480,0,0,480,0,481,480,0,0,0,0,0,0,0,0,0,0,0,0,0,682,0,0,0,0,0,0,0,0,0,0,0,0,697,0,700,703,705,705,705,705,704,702,698,694,690
1795,1795,1801,1806,1817,1822,1828,1839,1850,1861,1867,1872,1878,1878,1878,1878,1867,1867,1861,0,0,0,0,0,0,0,0,0,0,0,0,0,0,0,0,0,0,0,0,0,0,0,0,0,0,0,0,0,0,0,469,469,469,468,469,469,470,471,476,479,484,491,493,495,495,496,496,497,497,498,498,498,498,498,497,497,497,497,497,499,500,501,502,504,506,506,508,508,509,510,510,509,509,509,509,508,508,508,508,508,508,509,511,511,512,514,515,516,516,518,518,518,518,520,520,521,522,523,524,525,526,526,526,527,527,527,527,527,527,526,526,525,0,0,0,0,0,0,0,0,0,497,495,495,495,495,495,495,495,495,495,495,495,495,495,496,691,689,689,689,686,685,684,683,682,681,680,679,680,681,682,683,683,683,683,682,678,668,662,655,650,644,641,636,635,634,633,632,632,632,631,631,631,631,631,631,631,631,631,631,631,631,631,631,629,630,630,631,635,638,641,654,662,668,681,687,692,698,0,0,0,0,0,0,0,0,0,0,0,0,0,525,524,524,523,520,518,517,514,0,508,506,503,0,0,0,0,0,491,491,489,489,489,488,488,488,487,487,487,487,487,486,485,484,484,482,482,481,481,481,480,480,481,481,0,0,0,481,0,480,480,479,479,0,0,0,0,0,0,0,0,0,0,0,0,0,0,0,0,0,0,0,0,0,0,0,0,693,0,699,701,704,704,704,704,702,701,699,693,690
1795,1795,1795,1801,1811,1811,1817,1822,1839,1844,1850,1861,1872,1867,1878,1872,1867,1861,1861,0,0,0,0,0,0,0,0,0,0,0,0,0,0,0,0,0,0,0,0,0,0,0,0,0,0,0,0,0,0,0,468,469,469,469,470,472,473,475,480,483,486,491,492,493,495,495,496,497,497,497,497,498,498,498,497,497,496,497,497,499,499,500,501,504,505,506,508,508,508,509,509,509,509,509,508,508,508,508,508,508,508,509,511,512,513,516,516,517,518,518,518,518,519,520,521,521,523,524,525,526,526,527,527,528,528,528,528,528,528,527,526,0,0,0,0,0,0,0,0,0,0,0,0,495,495,495,495,495,495,495,495,495,495,495,496,496,696,695,694,693,691,689,689,687,685,683,683,681,681,681,683,683,684,683,682,680,676,666,660,653,647,642,639,636,635,634,633,632,632,631,631,631,631,631,631,631,631,631,631,631,631,631,631,631,629,630,630,631,635,638,642,655,662,668,677,682,686,690,0,0,0,0,0,0,0,0,0,0,0,0,526,524,523,522,521,518,517,515,513,512,508,506,504,503,501,496,495,494,493,495,493,492,491,491,491,490,490,490,489,489,488,487,486,485,484,0,482,481,481,481,481,481,481,481,481,481,481,481,481,480,479,479,478,0,0,0,0,0,0,0,0,0,0,0,0,0,0,0,0,0,0,0,0,0,0,0,0,0,0,697,700,703,703,703,702,701,700,698,692,689
1780,1785,1785,1790,1801,1806,0,0,0,0,0,0,0,0,0,0,0,0,0,0,0,0,0,0,0,0,0,0,0,0,0,0,0,0,0,0,0,0,0,0,0,0,0,0,0,0,0,0,0,0,468,469,469,469,471,473,475,0,0,0,0,0,0,493,494,495,495,496,497,497,497,497,497,497,497,497,496,496,496,0,0,499,500,503,504,505,507,506,507,508,508,508,509,509,509,509,509,508,509,509,509,510,512,513,514,516,517,518,518,518,518,519,519,520,521,521,523,525,526,526,527,528,529,529,530,530,530,530,530,530,529,0,0,0,0,0,0,0,0,0,0,0,0,495,495,495,495,495,495,495,495,495,496,496,496,496,697,697,697,696,693,693,691,689,687,686,685,684,684,683,683,684,685,683,681,679,674,663,0,652,646,641,639,636,634,634,633,632,632,631,631,631,631,631,631,630,630,631,631,631,631,632,632,631,630,630,630,631,635,638,642,656,663,668,676,678,681,683,683,681,679,0,0,0,0,0,0,0,0,0,0,523,522,521,521,518,516,514,513,512,509,508,506,505,503,501,499,499,498,496,495,494,493,493,492,492,491,491,490,490,489,488,487,486,485,484,483,481,481,481,481,481,481,482,481,481,481,481,480,479,479,478,478,477,0,0,0,0,0,0,0,0,0,0,0,0,0,0,0,0,0,0,0,0,0,0,0,0,0,0,0,703,702,702,702,701,700,697,686,683
1780,1780,1785,1790,0,0,0,0,0,0,0,0,0,0,0,0,0,0,0,0,0,0,0,0,0,0,0,0,0,0,0,0,0,0,0,0,0,0,0,0,0,0,0,0,0,0,0,0,0,0,468,469,469,469,472,475,476,481,483,486,488,490,491,492,492,493,493,495,495,495,496,496,496,495,495,495,494,494,494,495,496,497,497,500,501,503,505,506,507,507,508,508,508,509,509,510,510,510,511,511,511,513,514,515,516,518,518,518,518,519,519,519,519,520,521,521,523,525,526,526,528,529,530,530,531,531,530,530,530,530,529,0,0,0,0,0,0,0,0,0,0,0,495,495,495,494,495,495,495,495,495,495,496,496,496,496,700,700,700,698,697,696,695,693,690,689,688,687,686,686,686,686,686,684,681,678,672,666,660,650,644,640,638,635,634,633,632,632,631,631,631,631,630,630,630,630,630,631,631,631,632,632,632,631,631,631,631,631,635,639,644,660,665,669,675,676,678,679,679,678,676,676,0,0,0,0,0,0,0,0,0,522,522,521,520,518,516,515,513,512,510,508,507,506,504,501,500,500,499,497,497,496,495,495,494,493,493,492,491,491,490,489,488,486,485,484,483,482,482,481,481,481,481,482,482,481,481,481,481,479,479,478,477,476,0,0,0,0,0,0,0,0,0,0,0,0,0,0,0,0,0,0,0,0,0,0,0,0,0,0,0,0,0,702,701,700,700,695,685,679
0,0,0,0,0,0,0,0,0,0,0,0,0,0,0,0,0,0,0,0,0,0,0,0,0,0,0,0,0,0,0,0,0,0,0,425,425,424,424,424,424,424,425,425,0,0,0,0,462,466,468,469,469,470,473,476,478,482,485,487,488,489,490,491,492,492,493,493,494,494,494,495,494,494,494,493,493,493,493,493,494,495,496,499,500,501,503,505,506,506,508,508,508,509,510,510,511,511,511,511,512,514,514,515,516,518,518,518,518,518,518,519,519,520,521,521,523,525,526,526,528,529,530,531,531,531,531,531,530,530,530,0,0,0,0,0,0,0,0,0,494,0,494,494,494,494,494,494,494,495,495,496,496,496,496,497,703,703,703,702,701,700,699,697,695,693,692,691,693,693,692,692,690,687,682,678,671,665,655,649,644,640,638,635,634,633,632,632,631,631,631,630,630,630,630,630,630,631,631,632,632,632,632,631,631,631,631,632,636,640,645,660,665,669,674,675,676,676,676,676,675,674,0,0,0,0,0,0,0,0,0,523,522,521,520,518,516,515,514,512,510,508,508,506,505,503,502,501,501,499,499,498,497,496,495,495,494,494,492,492,491,489,487,486,485,0,484,482,482,0,0,481,482,482,482,481,481,481,481,480,479,478,478,477,476,476,0,0,0,0,0,0,0,0,0,0,0,0,0,0,0,0,0,0,0,0,0,0,0,0,0,0,0,0,701,701,700,693,0,674
0,0,0,0,0,0,0,0,0,0,0,0,0,0,0,0,0,0,0,0,0,0,0,0,0,0,0,0,0,0,0,0,0,0,0,425,425,425,424,424,424,425,425,425,0,0,0,0,0,0,0,0,0,474,0,0,481,484,485,486,487,488,489,490,491,491,491,492,493,493,493,493,493,492,492,491,491,491,491,492,493,494,495,498,499,501,501,504,505,506,507,508,508,509,510,511,511,511,512,512,513,514,515,516,516,518,518,518,518,519,518,518,519,519,520,521,523,524,525,526,528,529,530,531,531,531,531,530,530,530,529,527,526,0,0,0,0,0,0,0,494,494,494,494,494,494,494,494,495,495,495,496,496,497,497,497,706,706,706,707,708,708,707,706,705,704,702,701,700,698,697,695,693,690,684,679,672,665,655,649,644,640,638,634,634,633,632,631,631,631,631,630,630,629,629,629,631,631,631,632,632,633,633,632,631,631,631,632,636,642,647,662,666,669,673,674,674,674,674,674,674,673,0,0,0,0,0,0,0,0,0,523,522,521,520,518,517,515,514,513,511,510,509,508,507,505,503,503,503,502,501,501,499,498,497,497,496,495,493,492,491,489,488,486,485,484,484,482,482,0,482,481,482,482,482,481,481,481,480,480,478,478,477,477,476,476,0,0,0,0,0,0,0,0,0,0,0,0,0,0,0,0,0,0,0,0,0,0,0,0,0,0,0,0,0,700,700,693,0,0
0,0,0,0,0,0,0,0,0,0,0,0,0,0,0,0,0,0,0,0,0,0,0,0,0,0,0,0,0,0,0,0,0,0,0,425,425,425,425,425,425,425,425,425,426,429,0,0,0,0,0,0,0,0,0,0,0,483,484,485,486,487,488,489,489,490,490,491,492,491,491,491,491,491,491,491,491,491,491,491,493,493,495,497,499,500,501,503,504,505,506,507,508,508,509,510,511,511,512,513,513,515,516,516,516,517,518,518,518,518,518,518,518,519,519,521,522,524,525,526,528,529,529,530,531,531,531,530,530,529,528,527,526,525,523,0,0,0,0,0,496,495,494,494,494,494,494,494,495,495,496,496,497,497,498,498,706,707,708,709,710,710,711,709,709,708,708,706,704,703,701,700,697,693,686,680,672,665,655,650,645,641,638,635,634,634,633,632,631,631,631,630,630,629,629,629,630,631,631,632,633,633,634,632,632,632,632,633,638,643,649,663,667,671,672,672,672,672,671,671,671,671,0,0,0,0,0,0,0,0,0,525,523,523,522,520,518,518,516,515,513,512,511,510,508,507,506,506,505,503,502,501,501,499,499,497,497,495,493,492,491,489,488,486,485,0,484,482,0,0,0,481,482,482,481,481,0,481,481,481,479,479,478,477,476,476,0,0,0,0,0,0,0,0,0,0,0,0,0,0,0,0,0,0,0,0,0,0,0,0,0,0,0,0,0,0,690,676,0,0
0,0,0,0,0,0,0,0,0,0,0,0,0,0,0,0,0,0,0,0,0,0,0,0,0,0,0,0,0,0,0,0,0,0,0,425,425,425,425,425,425,425,425,426,429,431,436,0,0,0,0,0,0,0,0,0,0,482,483,484,484,485,486,487,487,488,489,489,489,489,489,489,489,490,490,490,491,491,491,492,493,494,495,497,499,500,501,503,504,504,506,506,507,508,508,509,510,511,512,512,513,515,515,516,516,517,517,517,517,518,518,518,518,519,519,520,521,523,524,526,527,528,529,530,530,530,530,530,528,528,528,526,526,525,523,522,0,0,0,0,498,495,494,494,493,493,494,495,495,495,496,497,497,498,498,499,706,707,709,709,712,712,714,713,712,712,711,709,709,706,705,704,700,696,688,682,674,667,656,651,646,642,639,636,635,634,634,632,632,631,631,630,630,630,629,629,630,631,631,632,634,634,634,634,633,633,633,634,641,646,653,666,670,673,674,673,673,672,671,671,671,671,0,0,0,0,0,0,0,0,0,526,525,525,523,521,520,518,517,516,514,513,512,510,508,508,507,506,506,504,503,502,501,500,499,498,497,496,493,492,491,489,489,487,485,0,484,482,0,0,0,481,0,0,482,482,481,481,482,481,481,480,479,478,477,476,0,0,0,0,0,0,0,0,0,0,0,0,0,0,0,0,0,0,0,0,0,0,0,0,0,0,0,0,0,0,0,0,0,0
0,0,0,0,0,0,0,0,0,0,0,0,0,0,0,0,0,0,0,0,0,0,0,0,0,0,0,0,0,0,0,0,0,0,0,426,426,426,426,426,425,426,427,428,431,434,0,467,471,475,478,477,477,479,480,481,481,481,482,483,483,485,486,486,486,487,488,488,489,489,489,489,489,490,490,491,492,493,493,493,495,495,496,498,499,500,500,502,503,503,505,506,506,507,508,508,509,510,511,512,513,514,515,515,515,516,517,517,517,517,518,518,518,519,519,520,521,523,524,525,527,528,528,529,529,529,529,528,528,527,527,526,526,525,524,522,0,0,0,0,499,0,495,495,494,494,494,495,495,496,497,497,498,498,499,499,704,706,708,709,710,712,714,714,714,713,713,710,709,708,705,704,699,695,689,683,676,669,658,653,649,645,642,638,638,637,636,634,634,633,632,631,631,630,629,629,629,631,631,632,634,634,635,634,634,634,634,634,642,648,654,667,671,674,674,674,673,672,672,672,671,672,0,0,0,0,0,0,0,0,0,527,527,526,525,522,521,520,518,517,514,513,512,511,509,508,507,506,506,505,504,503,502,501,500,499,498,497,494,493,491,490,488,487,486,0,0,482,0,0,0,0,0,0,482,482,482,483,484,483,483,482,481,479,0,0,0,0,0,0,0,0,0,0,0,0,0,0,0,0,0,0,0,0,0,0,0,0,0,0,0,0,0,0,0,0,0,0,0,0
450,450,449,449,449,450,450,451,451,453,454,454,455,0,0,456,457,458,458,459,459,460,461,462,462,461,460,0,0,0,0,0,0,0,0,0,0,0,0,428,430,431,0,0,0,0,464,473,475,476,478,478,478,478,479,479,480,480,481,481,482,484,484,485,486,486,487,487,488,488,488,489,489,490,491,491,493,493,494,495,495,496,497,498,499,499,500,502,503,503,504,505,506,506,507,508,508,509,510,511,512,514,514,515,515,516,517,517,517,518,518,518,518,519,519,520,521,522,523,524,525,526,526,527,527,527,527,527,527,526,526,525,524,524,523,522,516,514,0,0,499,0,495,495,495,495,495,496,497,497,499,499,500,500,501,501,501,501,705,706,709,711,713,713,712,712,711,709,707,705,703,701,697,693,688,683,676,671,660,655,651,646,643,640,639,638,638,636,635,634,633,632,631,630,630,629,629,631,631,632,634,634,635,634,634,635,635,636,642,649,654,666,670,673,675,674,674,673,673,673,673,674,0,0,0,0,0,0,0,0,0,530,528,527,526,524,523,521,520,518,515,514,513,511,509,508,508,507,506,506,505,504,503,502,501,500,499,497,495,493,492,491,490,489,0,0,487,0,0,0,0,0,0,0,0,0,0,484,484,484,484,483,482,0,0,0,0,0,0,0,0,0,0,0,0,0,0,0,0,0,0,0,0,0,0,0,0,676,0,0,667,664,0,0,0,0,0,0,642,0
449,449,449,449,449,449,449,450,451,451,453,454,455,455,456,456,457,458,458,459,460,460,461,462,463,463,464,0,0,0,0,0,0,0,0,0,0,0,0,430,432,435,0,0,0,463,467,474,475,476,478,478,478,478,479,479,479,479,480,481,481,482,484,484,485,486,486,487,487,487,488,488,489,491,491,492,493,494,495,495,496,497,497,499,499,500,500,501,502,502,503,504,504,505,506,506,506,507,508,509,510,511,513,514,514,516,517,517,518,518,518,518,519,520,520,521,521,522,523,524,525,525,526,526,526,526,526,526,526,526,526,526,525,524,524,522,517,514,0,0,499,0,496,495,495,496,496,497,497,498,500,500,501,501,502,502,502,503,704,705,706,709,710,710,709,709,709,707,705,702,700,698,694,692,687,683,678,672,662,657,653,649,646,642,640,640,639,637,636,635,634,632,631,631,630,630,629,630,631,632,634,634,635,635,636,636,636,637,644,649,660,665,669,673,676,674,674,674,674,674,674,675,0,0,0,0,0,0,0,0,532,532,531,530,530,527,526,525,523,521,518,516,514,512,510,509,508,508,508,506,506,505,504,503,501,500,499,498,495,493,493,492,491,490,0,0,0,0,0,0,0,0,0,0,0,0,0,486,487,486,486,484,0,0,0,0,0,0,0,0,0,0,0,0,0,0,0,0,0,0,0,0,0,0,0,0,678,673,671,0,666,663,660,654,0,0,0,0,638,629
447,448,447,448,448,448,449,449,450,451,452,454,454,455,456,457,457,458,459,459,460,461,462,462,464,465,466,467,0,0,0,0,0,0,0,0,0,441,439,438,440,442,0,0,466,468,472,473,474,475,477,477,477,477,478,478,478,478,478,479,479,481,482,483,484,485,486,486,486,487,488,489,490,491,492,493,495,495,496,496,497,498,498,499,499,500,500,501,501,502,503,503,503,504,504,505,505,506,507,507,508,509,511,512,514,516,517,517,518,518,519,519,519,520,520,521,521,522,523,523,524,524,525,525,526,526,526,526,526,526,526,526,525,525,524,522,516,0,0,503,499,0,496,496,496,496,497,498,498,499,500,501,501,501,502,503,503,503,701,702,704,706,707,708,706,706,705,700,697,695,693,692,689,687,684,682,679,669,664,659,655,651,647,644,642,641,640,638,637,636,635,633,632,631,631,630,629,630,630,631,633,634,636,636,638,638,639,640,645,650,655,665,669,673,677,0,0,0,0,0,0,0,0,0,0,0,0,0,0,0,534,533,532,531,531,529,527,526,524,521,519,517,514,512,510,509,508,508,508,506,506,505,504,503,502,501,499,498,495,495,494,493,492,491,0,0,0,0,0,0,0,0,0,0,0,0,0,0,489,488,487,486,0,0,0,0,0,0,0,0,681,681,679,679,676,674,674,0,0,0,0,0,0,685,683,680,679,672,670,668,664,661,658,0,651,0,0,0,638,0
447,446,446,447,447,447,447,449,450,451,452,454,454,455,456,456,457,458,459,460,460,461,462,463,464,465,466,467,467,467,467,466,466,465,464,460,458,455,0,0,0,0,462,461,470,472,473,473,474,475,476,476,476,476,477,477,477,477,478,478,479,480,481,482,482,484,485,486,486,487,488,489,492,493,494,495,497,497,497,498,498,498,498,499,499,499,499,500,501,501,501,502,503,503,503,503,503,504,505,506,506,508,510,511,512,515,516,517,518,518,518,519,519,520,520,521,521,521,522,523,523,524,525,526,526,526,526,526,526,526,526,526,526,526,524,520,0,0,0,502,498,497,496,496,496,497,498,499,499,500,501,501,502,502,503,503,503,504,698,698,698,700,700,700,697,697,695,695,693,691,689,688,687,685,683,681,679,672,668,0,658,654,651,646,645,644,643,641,640,639,638,635,634,632,632,631,630,630,630,631,633,634,636,636,638,640,639,640,646,650,654,0,0,0,0,0,0,0,0,0,0,0,0,0,0,0,0,0,0,0,0,0,534,533,532,530,529,527,525,521,520,518,516,513,511,510,509,508,508,507,506,505,505,503,503,501,500,499,497,496,495,495,494,493,0,0,0,0,0,0,0,0,0,0,0,0,494,491,494,0,0,0,0,0,0,676,676,0,0,0,679,679,677,676,675,674,673,0,0,0,0,0,687,685,683,680,678,671,669,667,664,0,655,652,649,647,0,0,0,0
444,444,444,444,444,445,445,447,449,450,452,453,454,455,456,457,457,458,459,460,460,461,462,462,464,465,465,466,467,466,467,466,466,465,464,462,0,0,0,0,0,0,465,469,471,472,472,473,473,474,475,475,475,476,476,476,477,477,477,478,478,479,481,481,482,484,485,486,486,487,489,490,493,494,495,496,497,497,497,497,497,497,497,498,498,498,498,499,499,499,500,501,502,502,502,502,503,502,503,504,505,506,508,510,511,513,516,517,517,518,519,518,519,520,520,520,520,521,521,521,522,524,524,526,526,526,526,526,526,526,526,525,524,522,519,516,518,0,0,499,497,496,496,497,497,498,499,500,500,501,502,503,503,503,504,504,505,505,0,695,695,695,694,693,692,691,689,689,689,686,685,685,684,683,681,679,679,672,668,0,659,655,652,648,646,645,644,642,642,640,639,637,636,634,633,632,631,630,631,632,632,636,638,639,642,642,642,643,646,649,653,847,844,844,842,0,0,0,0,0,0,0,0,0,0,0,0,0,0,0,539,538,535,534,533,530,529,527,526,522,521,518,516,514,511,510,509,508,508,507,507,506,506,505,504,503,502,501,499,498,497,497,496,496,0,0,0,0,0,0,0,0,0,0,0,497,497,496,0,0,0,0,0,0,675,674,674,0,0,676,0,676,676,675,674,672,672,0,0,0,0,0,686,683,682,0,676,671,669,666,663,660,655,652,649,647,645,643,0,0
442,442,442,442,443,443,444,446,448,449,452,453,454,455,456,457,457,458,459,460,460,461,462,462,463,464,465,466,466,466,466,466,465,465,464,463,462,0,0,462,465,466,467,469,470,471,472,472,473,474,475,475,475,475,476,476,477,477,478,478,478,479,480,481,482,483,485,486,486,488,489,490,493,494,495,496,497,497,497,497,497,497,497,496,496,496,496,497,497,497,498,499,499,499,499,499,499,499,500,501,502,503,505,506,508,509,512,514,514,516,517,518,518,519,519,518,518,519,519,519,520,521,523,525,0,526,526,526,527,526,525,523,0,0,0,0,0,0,0,497,496,496,496,497,497,499,499,500,501,501,503,503,503,504,504,505,505,505,692,692,690,691,690,689,689,686,685,684,683,682,681,681,681,679,679,679,677,672,668,664,660,657,651,649,647,646,645,643,642,641,640,638,637,636,634,633,632,631,631,632,636,638,640,642,645,646,646,646,647,648,651,844,843,841,840,836,0,0,0,0,0,0,0,0,0,0,0,0,0,0,541,0,537,536,534,530,529,527,526,523,521,520,518,516,513,511,511,510,509,508,507,507,506,506,505,504,503,503,501,500,499,499,498,498,0,0,0,0,0,0,0,0,0,0,0,498,498,497,497,0,0,0,675,674,674,673,672,672,0,672,672,0,672,674,673,672,672,0,0,0,0,0,683,0,0,677,675,669,667,665,663,661,655,653,650,648,646,642,641,639
441,441,441,441,441,442,443,445,447,448,451,452,454,455,456,457,457,458,459,460,460,461,462,462,463,464,465,465,466,465,466,466,465,465,465,464,464,464,464,464,466,467,468,469,470,471,472,472,473,474,475,475,475,476,476,476,477,477,478,478,478,478,479,479,480,482,483,484,485,487,488,489,492,494,494,495,496,496,495,495,495,495,495,495,495,495,495,495,495,496,496,496,496,496,497,497,496,497,498,499,500,501,502,504,506,507,510,511,512,514,515,516,517,518,518,517,516,516,515,515,0,0,0,0,0,0,0,0,0,0,0,0,0,0,0,0,0,0,496,495,495,496,496,497,498,499,500,501,501,502,503,503,504,504,505,505,506,505,0,688,0,687,686,685,684,683,679,679,679,677,677,677,678,677,677,676,676,671,669,665,662,658,652,651,649,648,647,644,644,642,641,639,638,636,636,634,633,632,632,633,0,0,0,649,651,0,0,0,854,853,847,844,843,841,840,835,0,0,0,0,0,0,0,0,0,0,0,0,0,0,544,0,538,537,535,530,528,527,526,523,521,520,518,516,514,512,512,511,510,509,508,508,507,506,506,505,504,503,503,501,500,500,499,500,0,0,0,0,0,0,0,0,0,0,0,0,499,499,497,497,0,0,674,674,673,671,671,671,668,671,668,668,668,668,669,669,0,0,0,0,677,681,0,0,0,0,673,666,665,664,661,659,655,652,649,648,646,643,642,640
440,440,440,440,440,441,442,445,446,448,450,452,454,455,456,457,457,458,459,459,460,461,462,462,462,463,463,464,465,465,465,465,465,464,464,464,464,464,464,464,466,467,467,469,470,471,472,473,473,474,475,475,475,476,477,477,477,478,478,478,478,478,479,479,480,480,482,483,483,485,487,488,491,492,493,494,495,495,495,495,495,495,495,495,495,495,495,494,494,494,494,494,0,0,494,494,493,494,495,497,498,499,499,502,503,504,507,508,509,511,513,514,515,516,515,515,513,512,511,0,0,0,0,0,0,0,0,0,0,0,0,0,0,0,0,0,0,0,494,494,495,495,496,498,499,499,501,501,502,502,503,503,504,504,505,505,506,506,0,0,0,682,682,681,680,678,677,677,676,676,676,676,676,676,676,676,676,674,669,666,663,660,655,653,651,650,649,646,645,644,643,641,640,639,638,635,634,633,633,634,639,644,646,649,654,656,0,0,854,851,849,844,843,841,840,836,0,0,0,0,0,0,0,0,0,0,0,0,0,0,547,541,539,537,535,529,527,526,525,523,521,520,519,517,514,513,512,512,511,509,508,508,508,507,506,506,505,504,503,502,502,501,500,501,0,0,0,0,0,0,0,0,503,0,500,499,499,498,496,0,0,0,672,671,671,670,669,668,668,667,667,666,667,667,668,668,0,0,0,674,674,0,0,0,0,668,666,664,663,662,660,658,654,652,650,648,646,644,642,640
440,440,440,440,440,441,442,443,446,447,449,451,453,454,455,456,457,457,458,459,459,460,460,461,461,462,462,463,463,463,463,464,464,464,464,463,463,464,464,464,466,467,467,469,470,471,472,473,474,475,475,476,476,477,478,478,478,478,478,478,478,478,479,479,479,480,481,482,482,483,485,486,487,490,491,493,493,493,493,493,494,494,494,493,493,493,493,492,492,0,0,0,0,0,490,490,491,491,492,493,494,495,495,497,497,499,500,503,504,505,503,506,506,507,511,0,0,506,503,502,0,501,0,0,0,0,0,0,0,0,0,0,0,494,493,492,492,493,493,495,495,496,497,498,499,500,501,502,503,503,504,504,505,505,506,506,506,506,0,0,0,679,679,679,678,676,676,676,676,676,675,676,676,676,676,676,675,674,669,666,664,661,656,654,653,651,650,648,647,646,645,642,641,640,639,636,635,634,634,634,641,646,649,655,658,660,0,0,855,853,850,844,843,842,839,834,0,0,0,0,0,0,0,0,0,0,0,0,0,557,548,542,0,538,534,526,525,525,524,522,521,521,519,518,515,514,513,513,511,510,509,510,509,508,508,508,507,506,506,505,504,503,503,503,503,503,0,505,505,505,505,505,503,502,500,500,499,498,496,496,0,671,671,670,669,668,668,666,666,666,665,666,666,666,666,666,0,0,0,0,0,0,668,665,665,0,663,662,661,660,659,658,654,652,651,648,647,646,643,640
440,440,440,441,441,442,442,445,446,447,449,451,452,454,455,456,456,456,458,458,458,459,459,460,460,461,461,462,462,462,463,463,463,463,463,463,463,463,464,465,466,467,467,468,470,471,472,474,475,475,476,477,477,477,478,478,478,479,479,478,478,478,479,479,479,479,481,481,482,482,484,485,486,488,489,491,492,493,493,493,493,492,492,491,491,491,490,489,488,488,487,486,485,486,486,486,486,487,487,488,489,489,489,489,491,492,492,495,496,499,500,503,503,504,0,0,503,0,499,499,498,497,495,0,0,0,0,493,493,493,493,493,493,492,493,493,493,493,493,495,495,497,497,499,499,500,501,502,503,503,504,504,505,505,506,506,506,506,0,0,0,676,676,675,675,674,674,674,674,674,674,675,675,676,676,676,675,673,670,667,665,663,658,656,655,653,652,649,649,647,646,644,0,641,640,639,638,0,0,638,644,649,653,661,0,0,0,0,855,853,849,844,843,841,838,833,0,0,0,0,0,0,0,0,0,0,0,0,0,574,561,549,541,0,0,526,524,524,523,522,521,521,520,519,517,516,515,514,513,512,511,511,511,509,509,508,508,507,507,505,504,503,503,503,504,503,505,506,506,506,505,505,503,503,501,500,499,498,495,495,0,671,669,669,668,667,667,665,665,665,665,665,665,665,665,665,666,0,0,0,0,0,667,664,662,661,660,660,659,658,658,657,655,652,651,649,647,644,644,641
440,441,441,441,442,442,443,445,446,447,449,451,452,453,455,456,456,456,457,457,457,458,458,459,459,460,461,462,462,462,463,463,463,463,463,463,463,463,464,465,466,467,468,470,471,472,473,474,475,476,476,477,478,478,479,479,479,479,479,478,478,478,478,479,479,479,480,481,481,481,481,482,484,486,487,487,489,491,491,491,491,491,491,490,489,489,489,487,487,486,486,485,484,484,484,484,484,486,486,486,487,487,487,487,488,489,490,491,493,496,497,501,501,0,0,502,0,500,498,497,497,496,495,495,495,495,495,495,495,495,494,494,494,494,493,493,493,494,494,495,496,497,498,499,500,501,502,503,503,503,504,505,505,505,506,506,506,506,507,508,508,0,0,0,0,674,673,673,674,673,0,0,0,0,0,0,0,0,0,0,0,0,0,0,0,0,0,0,0,652,649,646,644,642,642,641,0,0,0,0,0,0,0,0,0,0,0,0,0,853,849,844,842,840,0,0,0,0,0,0,0,0,0,0,0,0,0,0,0,0,0,549,541,0,532,526,524,524,523,523,521,521,520,519,518,517,516,515,514,514,513,513,512,511,510,509,508,508,508,506,506,505,504,505,505,504,505,506,506,506,505,505,504,502,501,500,499,498,496,495,0,671,0,668,666,665,665,664,664,664,664,664,665,665,665,665,665,667,0,670,670,668,666,663,660,659,658,658,658,658,658,657,655,654,653,651,649,647,646,644
441,441,441,442,442,442,443,445,445,447,448,450,451,453,454,455,455,455,456,456,457,457,458,458,459,460,460,461,461,462,462,463,463,463,463,463,464,465,465,466,467,468,469,470,471,473,473,475,476,476,477,478,478,478,479,479,479,479,480,479,479,479,479,479,479,479,480,480,481,480,481,482,483,485,486,487,487,489,490,490,0,491,491,490,488,488,487,487,486,485,484,484,482,483,483,483,484,484,485,485,485,486,486,486,486,486,487,488,491,493,495,498,499,499,499,499,499,498,497,497,497,496,496,496,496,496,496,496,496,496,495,495,495,495,494,495,495,495,495,496,497,498,499,500,500,501,502,503,503,504,504,505,505,505,506,506,506,506,507,507,508,508,509,509,510,0,0,0,0,0,0,0,0,0,0,0,0,0,0,0,0,0,0,0,0,0,0,661,0,0,0,0,0,645,0,0,0,0,0,0,0,0,0,0,0,0,0,0,0,0,0,844,0,0,0,0,0,0,0,0,0,0,0,0,0,0,0,0,0,0,0,549,0,0,0,526,525,524,523,523,522,522,521,521,519,518,518,517,516,515,514,514,513,511,511,511,510,509,508,508,507,506,506,505,505,505,0,506,506,506,506,505,503,503,501,500,499,498,495,0,0,671,669,667,666,665,665,663,663,663,663,664,665,665,665,665,665,0,0,0,668,0,0,0,0,0,658,657,657,0,658,657,655,655,654,653,649,649,648,645
441,442,442,442,442,443,443,444,445,446,447,449,450,451,452,454,454,454,455,455,456,456,457,458,458,460,460,461,462,462,462,463,463,464,464,464,465,465,465,466,468,469,469,471,472,473,474,475,476,476,477,478,478,478,479,479,479,479,479,479,479,479,479,479,479,479,479,480,480,479,480,481,482,484,485,486,487,488,488,0,0,489,489,0,0,0,0,485,484,484,483,483,482,483,483,482,483,483,484,484,484,484,484,484,484,485,486,487,489,491,0,491,496,496,497,497,497,497,497,497,497,497,497,497,497,497,497,497,497,497,497,497,497,496,496,496,496,498,498,499,499,499,500,501,501,502,503,503,503,504,505,505,505,505,506,506,506,507,508,508,508,509,509,510,510,512,515,0,0,0,0,0,0,0,0,0,0,0,0,0,0,0,0,0,0,0,0,0,0,0,0,0,0,0,646,0,0,0,0,0,0,0,0,0,0,0,0,0,0,0,0,0,0,0,0,0,0,0,0,0,0,0,0,0,0,0,0,0,0,0,0,0,0,0,0,527,526,525,525,524,523,523,522,521,520,519,518,518,517,516,515,516,514,513,512,511,510,509,509,508,507,506,506,506,506,505,0,506,506,506,506,505,504,503,501,501,499,498,495,0,0,0,0,666,665,665,664,663,663,663,663,663,664,665,665,665,665,0,0,667,667,0,0,0,0,0,656,656,656,656,0,656,655,0,655,653,650,649,648,645
442,442,442,442,443,443,443,444,445,446,447,449,450,450,452,452,453,454,454,455,455,455,457,458,458,460,461,461,462,462,463,463,463,464,465,465,466,466,466,467,468,469,470,472,473,473,474,475,476,476,476,477,477,478,478,479,479,478,479,479,479,479,479,478,479,479,479,479,479,479,479,481,482,483,0,484,485,487,487,485,485,487,487,483,482,482,482,482,482,482,482,482,482,482,482,482,482,483,482,482,482,482,482,482,482,482,483,483,0,0,0,0,0,0,0,0,497,498,498,498,499,499,499,499,499,500,500,500,500,501,500,500,500,500,500,500,500,500,500,500,500,500,501,501,501,502,503,503,503,504,504,505,505,505,506,506,506,507,508,508,508,509,509,509,510,0,0,0,0,0,0,0,0,0,0,0,0,0,0,0,0,0,0,0,0,0,0,0,0,662,658,0,0,0,0,0,0,0,0,0,0,0,0,0,0,0,0,0,0,0,0,0,0,0,0,0,0,0,0,0,0,0,0,0,0,0,0,0,0,0,0,0,0,534,533,531,530,529,528,526,526,525,524,523,521,521,520,520,519,518,517,516,514,513,512,511,510,509,510,508,508,506,506,506,506,505,0,506,506,506,506,505,504,503,502,501,499,498,496,0,0,0,0,665,664,663,663,662,662,663,663,663,663,664,665,665,665,665,0,0,0,0,0,0,656,0,0,655,655,655,655,655,656,655,655,654,651,651,650,646
442,442,442,442,443,443,443,444,445,446,446,448,449,450,451,452,452,453,454,454,455,455,457,458,459,460,461,462,462,463,463,464,465,465,465,465,466,466,466,467,468,469,470,472,472,473,474,475,475,476,476,476,477,477,478,478,478,478,478,478,478,478,478,478,478,477,477,478,478,478,479,481,482,483,484,484,485,487,486,0,0,0,0,0,0,480,481,481,481,481,0,482,481,482,482,482,482,483,482,482,482,482,482,482,482,482,482,0,0,0,0,0,0,0,0,0,0,499,499,499,500,500,501,501,501,502,502,502,503,503,503,502,502,502,502,501,501,501,501,501,501,501,501,502,502,503,503,503,503,503,504,505,505,505,506,506,506,507,508,508,508,509,509,510,0,0,0,0,0,0,0,0,0,0,0,0,0,0,0,0,0,0,0,0,0,0,0,0,0,0,0,0,0,0,0,0,0,0,0,0,0,0,0,0,0,0,0,0,0,0,0,0,0,0,0,0,0,0,670,662,0,0,0,0,0,0,0,0,0,0,0,0,540,537,534,532,531,531,530,528,527,526,526,525,523,522,521,521,520,519,518,518,515,513,512,511,510,510,510,509,508,508,507,506,506,505,0,506,506,506,506,506,505,504,503,501,500,499,0,0,0,0,0,664,662,662,662,661,661,662,662,662,663,663,663,663,663,663,662,662,0,0,657,0,0,0,653,653,654,0,0,0,655,0,0,655,653,652,0,0
442,443,442,443,443,443,443,443,445,446,446,448,449,450,451,451,452,452,453,454,455,455,457,458,459,460,461,462,463,463,464,464,465,465,466,466,466,467,467,467,468,469,470,471,472,473,473,474,474,475,475,476,476,476,477,478,478,478,478,478,478,478,478,478,476,474,474,475,475,476,479,483,486,487,488,488,489,489,487,485,484,0,0,0,479,479,479,479,479,478,479,480,480,481,482,482,482,483,483,483,483,482,482,482,482,482,482,0,0,0,0,0,0,0,0,0,0,500,500,501,502,502,503,503,503,504,504,505,505,505,505,505,505,504,504,503,503,502,502,502,502,502,502,502,503,503,503,503,504,504,504,505,505,505,506,506,506,507,508,508,508,509,509,510,510,512,514,515,0,0,0,0,0,0,0,0,0,0,0,0,0,0,0,0,0,0,0,0,0,0,0,0,0,0,0,0,0,0,0,0,0,0,0,0,0,0,0,0,0,0,0,0,0,0,0,0,0,683,0,0,0,0,0,0,0,0,0,0,0,0,0,0,540,538,535,534,534,532,531,530,529,528,527,525,524,524,523,522,521,521,519,518,515,514,513,511,511,510,510,509,508,507,507,507,506,505,0,506,506,506,507,506,505,505,503,503,0,0,0,0,0,0,0,0,0,661,661,660,661,661,661,662,663,663,663,662,662,661,660,660,658,656,0,655,0,0,0,0,0,0,0,0,0,0,0,0,0,0,0,0
442,442,442,442,442,442,443,443,444,445,445,447,448,449,450,451,451,451,453,454,454,455,458,458,460,461,462,463,463,464,465,465,466,466,466,466,467,467,467,467,468,469,469,470,472,473,473,473,473,474,474,475,475,476,476,477,478,478,478,478,477,477,476,475,473,472,0,0,0,0,479,484,488,0,489,490,489,489,487,485,0,0,0,478,478,478,478,477,477,477,478,478,478,479,481,481,482,483,483,483,483,483,483,483,483,483,0,486,0,0,0,0,0,0,0,0,0,0,502,503,503,504,506,506,506,507,508,508,508,508,508,508,508,507,506,506,508,506,505,504,504,503,504,504,504,504,505,505,504,505,505,505,506,506,506,507,507,508,508,508,509,509,509,510,510,510,514,515,0,0,0,0,0,0,0,0,0,0,0,0,0,0,0,0,0,0,0,0,0,0,0,0,0,0,0,0,0,0,0,0,0,0,0,0,0,0,0,0,0,0,0,0,0,0,683,683,683,682,676,0,0,0,0,0,0,0,0,0,0,0,0,0,538,538,537,536,535,534,533,532,531,530,529,527,526,525,525,524,523,522,521,520,518,516,514,512,511,511,511,510,509,508,508,507,507,506,0,506,0,0,508,508,0,507,507,0,0,0,0,0,0,0,0,0,660,660,660,660,660,661,661,662,661,662,663,661,661,660,659,660,658,655,655,654,654,653,653,653,0,0,654,654,655,0,0,0,0,0,651,649
442,442,442,442,442,442,442,443,444,444,445,447,448,449,449,450,450,451,452,453,454,455,458,459,460,462,462,463,464,465,465,465,466,466,466,466,467,467,467,467,468,468,469,469,471,472,472,472,472,473,473,474,475,475,475,476,477,478,478,478,478,476,476,474,0,0,0,0,0,0,479,485,0,0,489,489,488,485,483,481,479,477,476,476,476,475,475,475,474,473,473,473,474,474,477,479,480,482,484,484,484,484,484,484,484,0,487,489,0,0,0,0,0,0,0,0,0,0,503,505,506,507,509,510,511,512,513,513,513,513,514,514,514,514,514,513,511,510,509,507,506,505,505,506,506,506,506,506,505,506,506,506,506,506,507,507,508,508,508,509,509,509,0,0,0,0,0,0,0,0,0,0,0,0,0,0,0,0,0,0,0,0,0,0,0,0,0,0,0,0,0,0,0,0,0,0,0,0,0,0,0,0,0,0,0,0,0,0,0,0,0,698,0,684,683,682,681,680,671,0,0,634,629,0,0,0,0,0,0,0,0,0,0,540,538,538,538,537,536,534,533,532,531,529,528,528,526,526,526,525,524,522,519,517,515,513,512,512,512,511,510,509,508,0,508,506,0,507,507,507,509,509,509,509,0,509,0,0,0,0,0,0,0,659,660,660,660,660,660,661,661,661,661,661,662,661,660,659,658,658,657,655,655,0,0,653,653,0,0,0,0,654,0,0,0,0,0,0,0,0
442,442,442,442,442,442,443,443,444,445,445,447,448,449,449,450,450,451,451,453,454,455,457,459,460,462,463,463,464,465,465,466,466,466,466,466,467,466,466,467,467,468,468,469,471,472,472,0,0,472,472,473,473,474,474,476,477,477,477,477,477,0,475,0,0,0,465,462,466,0,0,0,486,486,486,486,484,483,481,479,478,476,476,475,475,474,474,473,473,472,472,472,473,473,476,477,479,482,484,484,485,0,0,0,0,0,0,491,0,0,0,0,0,0,0,0,503,503,504,505,506,507,510,511,511,512,0,514,514,514,515,515,515,516,515,515,514,512,511,509,507,506,506,506,506,508,507,508,507,507,507,507,507,507,508,508,508,508,509,509,510,510,0,0,0,0,0,0,0,0,825,825,0,0,823,823,823,823,0,0,0,0,0,0,0,0,0,0,0,0,0,0,0,0,0,0,0,0,0,0,0,0,0,0,0,0,0,0,0,0,0,702,694,684,683,0,682,681,0,0,0,0,0,0,0,0,0,0,0,0,0,0,0,541,540,539,539,537,537,535,534,534,532,530,530,529,528,527,527,526,525,524,520,0,516,514,513,513,512,511,511,509,509,509,508,506,0,507,507,0,510,510,510,510,0,0,0,0,0,0,0,0,0,659,659,659,660,660,660,660,660,660,659,659,660,659,657,658,656,656,655,653,653,653,0,0,652,651,0,0,0,0,0,0,0,0,0,0,0,0
442,442,442,442,443,443,443,444,445,445,446,447,448,448,449,450,450,451,451,452,454,455,457,459,460,462,463,464,464,465,465,466,466,466,466,466,466,466,466,466,466,467,0,0,470,0,0,0,0,0,472,473,473,474,0,0,0,0,0,0,0,0,0,0,0,0,0,454,0,0,474,481,485,484,484,484,483,481,479,478,476,475,475,474,474,473,472,472,472,471,471,471,471,472,474,475,478,482,484,484,486,487,487,487,489,489,490,491,493,493,495,0,497,499,500,502,503,504,504,506,506,508,510,511,512,513,514,515,515,515,516,516,518,517,517,517,516,0,0,0,0,0,0,511,511,510,509,509,509,509,508,508,508,508,508,508,509,509,509,510,510,511,0,0,0,0,0,0,825,827,827,827,825,824,823,823,824,825,827,830,0,0,0,0,0,0,0,0,0,0,0,0,0,0,0,0,0,0,0,0,0,0,0,0,0,0,0,0,0,0,0,0,0,685,0,0,0,681,0,0,0,629,0,0,0,0,0,0,0,0,0,0,0,0,541,541,540,538,538,536,535,535,533,531,530,529,529,528,528,527,526,525,521,519,517,515,514,513,512,511,511,510,510,509,508,507,0,509,509,0,513,513,0,0,0,0,0,0,0,0,0,0,0,0,0,0,659,660,660,659,659,659,658,658,658,658,656,655,655,654,654,653,653,652,0,0,0,652,0,0,0,0,0,0,0,0,0,0,0,0
443,443,443,443,443,444,444,444,445,446,446,447,448,448,448,449,449,450,450,452,452,454,457,458,460,462,463,464,464,465,465,465,466,466,466,466,466,466,466,466,466,0,0,0,0,0,0,0,0,0,0,471,472,473,473,0,0,0,0,0,0,0,0,0,0,0,0,0,455,0,473,480,483,483,482,482,481,479,478,476,475,474,474,473,473,472,472,471,471,470,470,470,470,471,473,475,476,481,484,485,486,488,488,489,489,490,490,490,491,491,492,492,492,493,497,501,501,502,503,506,506,508,510,511,512,513,514,515,515,517,517,518,518,519,518,519,518,518,517,513,0,0,512,512,0,513,513,513,512,511,511,511,511,510,510,510,510,510,511,511,511,511,511,512,512,0,0,827,828,830,830,828,825,825,824,824,824,825,828,0,0,0,0,0,0,0,0,0,0,0,0,0,0,843,0,0,0,0,0,0,0,0,0,0,0,742,0,0,0,727,0,0,698,690,0,0,0,0,0,0,0,629,0,629,0,0,0,0,0,0,0,0,0,545,543,542,540,538,538,537,536,535,534,532,531,530,530,529,528,528,527,526,524,521,520,518,516,515,514,513,513,512,512,511,511,509,0,512,0,0,0,0,0,0,0,0,0,0,0,0,0,0,0,0,0,659,659,659,659,0,658,658,657,657,657,656,655,654,654,654,654,653,652,0,653,0,652,653,653,0,0,0,0,0,0,0,0,0,0,0
443,443,444,444,444,445,445,446,446,446,447,447,448,448,448,449,449,450,450,451,452,454,456,458,459,462,462,463,464,465,465,465,465,466,466,466,466,466,466,466,466,0,0,0,0,0,0,0,0,0,0,0,0,0,0,0,0,0,0,0,0,0,0,0,0,0,0,0,0,461,0,479,482,481,480,476,476,474,473,472,472,472,471,471,471,471,471,471,470,470,469,469,469,469,472,473,476,478,484,485,486,488,488,489,489,489,490,490,490,490,490,490,490,491,0,0,499,501,502,506,507,508,510,511,512,513,514,515,516,516,518,518,519,521,521,521,519,518,517,0,0,0,0,0,513,513,514,513,513,512,512,512,511,511,511,511,511,511,511,511,511,512,512,512,0,0,826,827,827,828,828,827,825,824,824,824,824,825,827,0,0,0,0,0,0,0,0,0,0,0,0,0,828,825,830,839,865,868,872,0,0,0,0,0,798,777,775,762,757,745,0,0,0,683,681,0,681,0,0,0,0,628,629,634,632,634,0,0,0,0,0,0,0,556,0,551,548,544,539,538,537,0,535,533,532,531,531,530,530,529,528,527,524,523,521,519,517,516,514,514,513,513,513,512,511,511,0,0,0,0,0,0,0,0,0,0,0,0,0,0,0,0,0,0,0,0,658,659,658,0,658,657,655,655,655,655,654,0,653,654,653,653,0,0,0,0,0,653,654,0,0,0,0,0,0,0,0,0,0,0
443,444,444,444,445,445,446,446,447,447,447,448,448,448,0,448,449,449,450,451,451,453,456,457,459,461,462,463,464,464,465,465,465,466,466,466,466,466,466,466,0,0,0,0,0,0,0,0,0,0,0,0,0,0,0,0,0,0,0,0,0,0,0,0,0,0,0,0,0,0,0,476,476,475,474,473,473,472,471,471,471,471,471,471,471,471,471,471,470,470,469,469,469,469,471,474,476,478,484,485,486,488,488,488,489,489,489,489,488,489,489,489,488,0,0,0,0,0,500,505,506,508,511,511,512,513,514,515,515,516,517,518,520,521,521,522,521,0,0,0,0,0,0,0,0,514,514,514,514,514,513,513,513,512,512,511,512,512,512,512,512,512,513,513,513,824,0,825,825,826,826,825,824,823,823,823,823,824,826,827,831,832,833,833,0,0,0,0,799,790,791,791,793,798,806,0,0,0,0,0,0,0,0,0,0,0,795,790,783,771,0,0,0,0,0,0,0,0,0,0,0,643,642,641,638,639,0,0,0,0,0,0,563,561,0,0,0,549,542,0,0,536,0,533,532,532,531,530,530,529,528,528,525,523,521,520,518,516,0,514,0,514,514,514,513,0,0,0,0,0,0,0,0,0,0,0,0,0,0,0,0,0,0,0,0,0,0,658,657,656,657,656,654,654,654,654,653,0,653,653,653,653,652,0,652,653,652,653,0,0,0,0,0,0,0,0,0,0,0,0
443,444,444,445,445,446,447,447,447,447,447,448,448,448,448,449,449,449,450,450,451,452,455,456,457,459,461,463,464,464,464,465,465,466,466,466,467,467,467,466,0,0,0,0,0,0,0,0,0,0,0,0,0,0,0,0,0,0,0,0,0,0,0,0,0,0,0,0,0,0,0,0,0,0,473,473,472,472,471,471,471,471,471,471,471,471,472,471,471,471,471,470,470,470,472,474,476,478,483,485,486,487,487,487,488,488,489,488,487,487,486,486,485,486,487,488,0,0,497,502,503,506,509,510,511,511,513,513,514,514,516,517,518,518,519,518,518,0,0,0,507,0,511,511,513,514,514,514,514,514,514,514,514,513,513,513,513,513,513,513,513,513,513,514,820,822,823,824,825,826,826,825,824,823,824,824,824,824,826,827,828,830,831,832,0,0,0,794,0,0,0,775,777,0,0,0,0,0,861,864,865,0,0,0,0,801,0,0,0,0,0,0,0,0,0,0,0,0,0,0,0,654,651,646,644,645,0,0,0,0,0,0,567,0,0,0,0,0,546,543,540,0,535,534,533,532,531,531,530,530,529,528,526,524,522,521,518,517,0,515,515,514,515,515,514,0,0,0,0,0,0,0,0,0,0,0,0,0,0,0,0,0,0,0,0,0,0,0,655,0,0,0,653,653,654,654,653,653,653,653,653,653,653,0,652,653,652,653,0,0,0,0,0,0,0,0,0,0,0,0
444,444,445,0,446,447,447,448,448,448,448,448,448,448,448,449,449,450,450,450,450,451,454,455,456,458,461,462,463,464,464,465,465,0,0,0,0,0,0,0,0,0,0,0,0,0,0,0,0,0,0,0,0,0,0,0,0,0,0,0,0,0,0,0,0,0,0,0,0,0,0,477,0,0,473,473,473,473,472,472,472,472,471,471,472,472,472,472,472,472,471,471,471,471,473,475,477,479,483,484,485,487,487,487,487,487,486,486,484,484,484,483,482,482,482,484,485,0,0,0,0,503,506,508,509,509,510,511,511,512,513,514,515,515,516,515,514,0,0,0,505,506,510,511,512,513,514,515,515,516,516,516,516,515,515,515,514,514,514,514,514,514,514,514,0,822,822,823,824,825,825,824,823,823,823,823,822,823,825,825,827,828,831,831,0,0,0,0,0,0,0,739,756,756,761,0,0,0,859,862,866,866,860,840,823,810,806,801,0,0,0,0,0,0,0,0,0,0,0,0,0,0,0,655,648,647,646,638,0,0,0,0,573,572,570,568,571,0,551,546,541,538,0,535,534,533,532,531,531,530,529,528,526,525,523,522,520,519,0,517,517,516,517,517,0,0,0,0,0,0,0,0,0,0,0,0,0,0,0,0,0,0,0,0,0,0,0,0,654,0,0,653,652,653,652,653,653,653,653,653,653,0,652,652,653,653,652,0,0,0,0,0,0,0,0,0,0,0,0,0
0,0,0,447,448,448,448,449,448,448,448,449,449,449,448,449,449,450,450,450,450,451,452,455,0,457,460,462,463,464,464,465,465,466,0,0,0,0,0,0,0,0,0,0,0,0,0,0,0,0,0,0,0,0,0,0,0,0,0,0,0,0,0,0,0,0,0,0,0,0,481,480,478,475,475,474,474,473,472,472,472,472,472,472,472,473,473,473,474,473,473,473,473,473,475,476,478,482,483,484,485,486,486,486,486,486,486,485,484,483,483,482,481,481,481,482,483,485,487,0,0,0,0,508,509,509,510,510,511,511,512,513,514,514,514,513,512,0,0,505,505,506,509,511,512,513,514,514,515,515,516,516,517,517,516,516,515,515,515,515,515,514,515,515,0,821,822,822,823,823,823,823,822,821,822,821,821,822,823,824,826,827,825,816,0,0,0,0,0,722,720,725,727,726,732,742,807,835,851,861,864,866,862,848,836,821,814,820,816,790,767,0,0,0,710,708,706,697,690,685,674,668,668,660,657,653,651,0,0,0,0,0,578,578,578,576,575,0,0,0,0,0,0,0,535,535,534,533,532,531,530,529,527,526,524,523,521,520,519,519,0,518,0,519,0,0,0,0,0,0,0,0,0,0,0,0,0,0,0,0,0,0,0,0,0,0,0,0,0,0,0,0,651,652,0,653,653,0,0,0,653,653,653,653,653,0,653,0,0,0,0,0,0,0,0,0,0,0,0,0
0,0,0,447,448,448,449,449,449,449,449,449,449,449,449,449,449,449,450,450,450,451,452,454,455,0,0,0,0,464,464,464,0,0,0,0,0,0,0,0,0,0,0,0,0,0,0,0,0,0,0,0,0,0,0,0,0,0,0,0,0,0,0,0,0,0,0,0,0,0,0,481,479,478,477,0,476,475,474,473,473,472,472,472,473,474,475,476,477,478,0,0,482,482,482,482,483,484,484,485,485,486,486,486,486,486,486,485,483,483,482,482,481,481,481,482,482,484,486,489,0,0,0,0,0,509,510,510,511,511,511,512,512,512,512,0,0,0,506,505,505,506,509,510,511,512,513,514,515,516,517,517,518,518,517,517,516,516,516,515,515,515,516,515,516,817,817,818,817,817,817,817,816,817,817,817,818,818,818,821,818,818,815,0,0,761,0,701,697,700,707,709,713,719,726,735,0,797,833,839,864,0,866,0,0,0,0,0,0,0,0,0,726,718,709,708,705,698,694,690,686,681,671,667,663,658,0,0,0,0,0,580,579,580,579,579,576,575,0,0,0,0,540,537,536,536,535,533,533,532,531,530,529,527,526,525,523,522,521,521,520,521,0,521,0,0,0,0,0,0,0,0,0,0,0,0,0,0,0,0,0,0,0,0,0,0,0,0,0,0,0,0,650,651,653,0,653,0,0,0,654,653,653,653,0,0,0,0,0,0,0,0,0,0,0,0,0,0,0,0
442,445,446,447,448,448,449,449,448,449,449,449,449,448,448,449,449,449,449,450,450,450,451,453,454,455,0,0,0,0,0,0,0,0,0,0,0,0,0,0,0,0,0,0,0,0,0,0,0,0,0,0,0,0,0,0,0,0,0,0,0,0,0,0,0,0,0,0,0,0,0,0,0,481,478,478,477,476,475,475,474,474,473,473,474,475,477,479,481,482,0,0,0,486,486,485,486,485,486,486,486,486,486,486,486,486,486,485,484,483,482,482,482,482,482,483,484,484,486,489,0,0,508,508,509,509,510,509,510,510,510,511,511,508,508,507,507,506,505,505,505,506,508,509,511,511,513,514,514,516,518,518,518,518,518,518,517,517,516,516,516,516,516,516,516,813,0,813,813,813,813,814,814,814,815,815,816,817,817,817,814,802,0,0,0,0,0,698,698,700,705,707,712,718,725,734,762,782,0,848,854,854,0,0,0,0,807,0,0,0,754,0,719,714,708,706,704,698,696,693,690,686,676,0,0,0,0,0,0,0,0,581,579,579,579,579,578,0,0,0,0,0,541,538,538,537,536,534,533,533,532,531,530,529,527,526,525,524,523,522,522,523,0,523,0,0,0,0,0,0,0,0,0,0,0,0,0,0,0,0,0,0,0,0,0,0,0,0,0,0,0,0,0,0,0,0,0,0,0,0,0,0,0,0,0,0,0,0,0,0,0,0,0,0,0,0,0,0,0,0
441,444,445,446,447,448,448,448,448,448,449,448,448,448,448,449,449,449,449,450,450,451,452,454,455,456,0,0,0,0,0,0,0,0,0,0,0,0,0,0,0,0,0,0,0,0,0,0,0,0,0,0,0,0,0,0,0,0,0,0,0,0,0,0,0,0,0,0,0,0,0,0,0,0,479,479,479,478,0,0,0,0,0,0,0,480,482,484,486,488,489,490,490,0,489,488,487,487,487,487,487,487,487,487,487,487,487,486,484,484,484,483,483,483,484,484,486,487,488,490,0,0,503,507,508,508,508,508,509,509,508,508,508,508,507,507,506,506,505,506,506,506,509,510,511,512,513,514,515,518,518,519,519,520,519,519,518,518,517,517,516,516,517,516,516,0,811,811,812,812,813,814,814,815,815,815,816,817,817,817,813,0,777,0,0,0,702,697,697,700,703,706,710,717,726,745,0,0,0,0,0,0,0,823,817,792,0,0,758,748,735,725,717,713,707,705,703,697,695,693,690,687,679,676,0,0,0,0,0,0,0,579,579,578,578,577,573,571,566,0,0,0,0,539,538,538,537,535,534,534,533,531,531,531,529,529,528,528,526,526,526,528,0,529,0,0,0,0,0,0,0,0,0,0,0,0,0,0,0,0,0,0,0,0,0,0,0,0,0,0,0,0,0,0,0,0,0,0,0,0,0,0,0,0,0,0,0,0,0,0,0,0,0,0,0,0,0,0,0,0
441,444,445,446,447,447,448,448,448,448,449,448,448,448,448,448,448,449,449,0,0,0,0,0,0,0,0,0,0,0,0,0,0,0,0,0,0,0,0,0,0,0,0,0,0,0,0,0,0,0,0,436,0,0,435,435,0,0,0,0,0,0,0,0,0,0,0,0,0,0,0,0,0,0,0,0,0,0,0,0,0,0,0,0,0,0,487,0,492,492,493,494,495,493,493,491,489,489,488,488,488,488,489,489,489,489,489,488,488,487,487,487,487,487,488,488,490,491,492,0,499,501,503,506,507,507,508,508,508,508,507,507,508,507,506,505,505,505,505,505,506,507,510,510,511,512,514,514,515,518,519,519,520,520,520,519,518,518,518,517,517,517,517,517,517,0,810,810,811,812,812,814,814,816,816,815,815,816,816,0,0,0,0,0,707,0,696,695,696,699,705,709,714,723,0,0,744,745,742,740,0,753,0,0,0,0,0,742,734,730,724,719,713,709,706,704,701,696,693,692,690,688,686,0,0,0,0,0,0,0,0,579,578,576,575,574,569,566,0,0,0,0,0,540,539,538,538,537,536,535,535,533,532,532,531,530,529,529,528,528,528,530,531,531,0,0,0,0,0,0,0,0,0,0,0,0,0,0,0,0,0,0,0,0,0,0,0,0,0,0,0,0,0,0,0,0,0,0,0,0,0,0,0,0,0,0,0,0,0,0,0,0,0,0,0,0,0,0,0,0
442,445,445,446,447,447,447,448,448,448,449,0,0,448,448,448,448,448,449,0,0,0,0,0,0,0,0,0,0,0,0,0,0,0,0,0,0,0,0,0,0,0,0,0,0,0,0,438,437,437,436,436,435,435,435,435,436,0,0,473,0,0,0,0,0,0,0,0,0,0,0,0,0,0,0,0,0,0,0,0,0,0,0,0,0,0,0,0,494,495,497,497,497,496,496,493,493,492,491,491,490,490,490,490,490,490,489,489,489,489,489,489,489,490,490,490,492,493,494,495,499,501,503,505,506,506,506,506,506,506,506,506,506,506,505,505,505,505,505,506,506,508,509,510,511,512,514,515,516,517,519,519,520,520,520,519,518,518,518,518,517,517,517,517,517,0,0,808,810,811,811,812,813,814,814,814,815,814,815,816,815,0,0,0,0,689,688,688,693,700,708,713,720,0,0,0,739,737,736,732,747,754,768,770,766,762,755,741,734,729,724,718,712,709,705,701,700,694,693,692,689,688,0,0,0,0,0,0,0,0,0,578,575,574,573,571,568,565,0,0,0,0,0,541,540,539,539,538,537,536,535,535,534,533,532,531,531,531,530,530,530,531,532,533,0,0,0,0,0,0,0,0,0,0,0,0,0,0,0,0,0,0,0,0,0,0,0,0,0,0,0,0,0,0,0,0,0,0,0,0,0,0,0,0,0,0,0,0,0,0,0,0,0,0,0,0,0,0,0,0
443,444,445,445,446,447,447,447,448,0,0,0,0,0,0,447,447,447,0,0,0,0,0,0,0,0,0,0,0,0,0,0,0,0,0,0,0,0,0,0,0,0,0,0,0,0,0,438,437,437,436,435,435,435,435,435,435,439,0,0,0,0,0,0,0,0,0,0,0,0,0,0,0,0,0,0,0,0,0,0,0,0,0,0,493,493,494,495,496,496,497,497,497,497,496,494,494,493,492,491,491,491,491,491,491,491,490,490,490,490,490,490,490,491,491,492,493,494,495,497,499,501,502,503,503,504,504,505,505,505,505,504,504,504,503,503,503,503,503,503,504,505,506,508,510,511,513,514,515,517,518,519,519,520,520,519,518,518,518,518,517,517,518,518,517,518,0,0,810,810,810,811,811,813,813,813,814,814,815,0,0,0,0,0,0,0,0,0,0,705,0,0,0,0,0,0,740,738,735,731,737,0,0,760,758,758,753,740,732,728,723,718,713,709,705,701,699,694,693,692,689,689,685,0,0,0,0,0,0,0,0,576,574,572,571,568,565,0,0,553,549,546,544,541,540,540,539,538,538,537,536,536,535,535,534,533,532,532,532,531,531,532,533,534,535,0,537,538,538,538,538,539,543,546,0,0,0,0,0,0,0,0,0,0,0,0,0,0,0,0,0,0,0,0,0,0,0,0,0,0,0,0,0,0,0,0,0,0,0,0,0,0,0,0,0,0,0,0,0,0
0,0,0,445,445,0,0,0,0,0,0,0,0,0,448,448,448,0,0,0,0,0,0,0,0,0,0,0,0,0,0,0,0,0,0,0,0,0,0,0,0,0,0,0,0,0,0,438,437,437,436,435,435,435,435,435,436,439,0,0,0,0,0,0,0,0,0,0,0,0,0,0,0,0,0,0,0,0,0,0,0,492,493,493,493,494,494,495,497,497,498,498,498,498,497,495,494,493,493,492,491,490,491,491,491,491,491,491,491,491,491,491,491,492,492,493,494,495,496,497,498,499,499,500,501,501,501,502,502,502,503,503,503,503,503,503,503,502,502,502,502,503,504,507,508,511,514,515,515,516,518,519,519,520,519,519,518,518,518,518,518,518,518,518,518,518,518,0,0,0,0,811,811,813,814,813,0,0,0,0,0,0,0,0,0,0,0,0,729,0,0,753,0,754,748,743,743,739,737,733,745,752,761,0,0,769,761,744,737,731,723,718,712,707,705,700,697,693,692,691,690,688,0,0,0,0,0,0,0,0,0,573,570,570,568,563,560,556,552,550,548,546,544,542,541,540,540,538,538,538,537,537,537,536,536,535,535,535,534,534,534,0,535,536,536,0,538,538,539,539,0,544,547,550,0,0,0,566,0,0,0,0,0,0,0,0,0,0,0,0,0,0,0,0,0,0,0,0,0,0,0,0,0,0,0,0,0,0,0,0,0,0,0,0,0,0,0,0,0,0
0,0,0,0,0,0,0,0,0,0,0,0,0,0,0,449,449,0,0,0,0,0,0,0,0,0,0,0,0,0,0,0,0,0,0,0,0,0,0,0,0,0,0,0,0,0,0,438,437,437,436,435,435,435,435,435,435,0,0,0,0,0,0,0,0,0,0,0,0,0,0,0,0,0,0,0,0,488,489,489,490,491,491,492,492,493,493,494,495,497,497,497,497,497,496,494,493,493,492,491,490,490,490,490,490,491,490,490,490,490,491,491,492,492,493,494,495,496,496,497,498,498,499,499,499,500,500,501,501,501,501,502,502,503,502,502,502,502,501,501,501,501,503,505,506,508,512,514,515,516,518,518,519,519,518,518,518,518,518,518,518,518,518,518,518,518,518,518,0,0,0,810,810,810,812,0,0,0,0,0,0,0,0,0,0,0,0,0,0,0,769,772,771,766,758,748,748,744,741,738,750,760,769,775,783,778,761,752,743,735,726,718,711,0,704,699,696,692,691,690,689,687,0,0,0,0,0,0,0,0,0,572,569,565,564,561,557,554,551,549,548,546,545,543,542,541,541,540,539,539,538,538,538,537,537,535,536,536,536,535,535,0,536,537,537,0,538,539,540,0,0,546,549,552,0,560,562,564,0,0,0,0,0,0,0,0,0,0,0,0,0,0,0,0,0,0,0,0,0,0,0,0,0,0,0,0,0,0,0,0,0,0,0,0,0,0,0,0,0,0
0,0,0,0,0,0,0,0,0,0,0,0,0,449,449,449,0,0,0,0,0,0,0,0,0,0,0,0,0,0,0,0,0,0,0,0,0,0,0,0,0,0,0,0,0,0,0,437,436,436,435,435,435,435,435,435,0,0,0,474,0,0,0,0,0,0,0,0,0,0,0,0,0,0,0,0,0,487,489,489,490,491,491,492,492,493,493,493,494,495,495,496,496,496,495,495,493,491,491,490,489,489,489,489,489,489,489,489,489,489,490,490,491,492,493,493,495,495,495,496,497,497,497,497,498,499,499,499,500,500,500,501,501,502,502,501,501,501,500,500,500,500,501,0,0,505,507,510,512,514,516,517,518,518,518,518,518,518,518,518,518,518,518,518,518,518,519,816,815,0,0,0,0,807,806,806,0,0,0,0,0,0,0,0,0,0,0,0,789,787,0,782,780,774,761,757,755,754,0,0,0,0,778,781,784,0,0,0,0,0,745,738,729,0,0,700,697,693,691,0,0,0,0,0,0,0,0,0,0,0,573,570,567,563,562,559,556,553,550,549,548,546,545,543,542,542,541,540,540,539,539,538,538,538,537,536,536,536,536,535,536,536,537,537,538,0,539,540,542,0,544,546,551,0,0,560,561,563,564,566,0,0,0,0,0,0,0,0,0,0,0,0,0,0,0,0,0,0,0,0,0,0,0,0,0,0,0,0,0,0,0,0,0,0,0,0,0,0,0,0
0,0,0,0,0,0,0,0,0,0,448,449,449,448,448,449,450,450,450,0,0,0,0,0,0,0,0,0,0,0,0,0,0,0,0,0,0,0,0,0,0,0,0,0,0,0,0,0,0,0,0,436,435,435,435,435,0,0,0,0,480,482,0,0,0,0,0,0,0,0,0,0,0,0,484,485,486,486,488,489,490,491,491,491,491,491,492,492,492,493,493,493,493,494,493,492,490,489,489,488,487,487,487,487,487,487,487,487,487,487,488,489,489,491,491,492,493,494,494,495,495,495,496,496,497,497,498,498,499,499,499,500,500,501,501,500,500,499,499,498,498,498,499,0,0,0,0,0,0,0,0,516,516,517,517,518,518,518,518,518,518,519,519,518,518,519,816,815,814,811,0,0,0,797,796,0,0,0,0,0,0,0,0,0,0,0,0,0,802,795,789,784,0,0,761,760,0,0,0,758,0,0,779,783,0,790,788,784,773,0,0,0,0,0,0,0,0,697,0,0,0,0,0,0,0,0,0,0,579,0,0,568,566,562,560,558,555,553,550,549,548,547,545,544,543,542,542,540,540,540,539,539,539,538,538,537,537,537,537,536,536,537,537,538,538,0,539,540,0,544,546,548,556,557,556,559,560,560,561,563,565,566,0,0,0,0,0,0,0,0,0,0,0,0,0,0,0,0,0,0,0,0,0,0,0,0,0,0,0,0,0,0,0,0,0,0,0,0,0,0
0,0,0,0,0,0,0,0,0,0,449,449,449,449,449,450,450,451,451,451,452,0,0,0,0,0,0,0,0,0,0,0,0,0,0,0,0,0,0,0,0,0,0,0,0,0,0,0,0,0,0,0,0,0,0,0,0,0,0,0,0,482,0,0,0,0,0,0,0,0,0,0,484,484,485,485,486,487,488,489,489,490,490,491,491,490,490,490,490,491,491,491,491,491,491,490,487,487,486,484,483,482,482,482,482,482,483,483,483,484,485,485,486,487,488,489,490,491,492,493,493,494,494,494,495,495,495,496,497,498,498,499,500,500,500,500,499,499,499,497,497,497,497,498,498,499,0,0,0,0,0,0,515,516,517,517,518,518,518,519,519,519,519,519,519,519,815,814,814,810,806,802,799,793,790,0,0,0,0,0,0,0,0,0,0,0,0,0,791,785,780,777,773,0,761,759,758,758,756,759,765,0,781,784,787,790,787,781,0,0,0,0,0,0,0,0,0,0,0,0,0,0,0,0,0,0,0,580,576,574,571,567,565,562,561,558,556,554,551,550,549,548,546,545,544,543,543,541,541,541,540,540,539,540,540,539,539,538,538,537,537,538,539,540,543,544,547,549,553,554,556,558,559,558,558,559,559,559,560,561,562,564,0,0,0,0,0,0,0,0,0,0,0,0,0,0,0,0,0,0,0,0,0,0,0,0,0,0,0,0,0,0,0,0,0,0,0,0,0,0
0,0,0,0,0,0,0,0,0,449,449,449,450,449,449,450,450,451,451,0,0,0,0,0,0,0,0,0,0,0,0,0,0,0,0,0,0,0,0,0,0,0,0,0,0,0,0,0,0,0,0,0,0,0,0,0,0,0,0,0,482,482,0,0,0,0,0,0,486,485,485,485,485,484,485,486,486,487,488,488,489,489,489,490,489,489,489,488,488,488,488,487,487,487,486,485,484,482,482,481,481,481,481,481,481,481,482,482,482,483,483,484,484,486,487,488,489,491,491,492,493,494,494,494,494,495,495,495,497,497,497,498,499,499,0,0,0,499,499,497,497,497,497,496,497,497,497,499,500,0,0,0,0,515,517,517,518,518,518,519,519,519,519,519,519,519,816,815,815,811,807,803,800,794,791,788,0,0,0,0,0,0,0,0,0,0,793,786,0,778,772,769,761,759,757,755,756,757,757,759,767,773,776,781,784,785,781,776,768,760,751,0,0,713,708,705,0,0,0,0,0,0,0,0,0,0,0,0,583,583,0,0,572,564,562,560,558,557,555,554,553,552,550,548,547,546,545,544,544,543,543,542,542,542,541,540,540,540,540,538,538,540,541,543,548,549,552,557,558,559,560,560,560,560,559,558,558,557,0,558,559,560,561,0,0,0,0,0,0,0,0,0,0,0,0,0,0,0,0,0,0,0,0,0,0,0,0,0,0,0,0,0,0,0,0,0,0,0,0,0
0,0,0,446,447,448,448,448,449,449,449,449,449,449,449,0,0,0,0,0,452,0,0,0,0,0,0,0,0,0,0,0,0,0,0,0,0,0,0,0,0,0,0,0,0,0,0,0,0,0,0,0,0,0,0,0,0,0,0,482,483,483,484,484,485,486,486,486,486,486,486,486,486,486,486,486,486,487,488,489,489,489,490,489,489,489,488,488,487,487,487,487,486,486,485,484,483,481,481,481,480,480,480,481,481,481,481,481,481,482,482,483,484,485,486,487,488,491,491,493,494,494,495,495,495,496,496,496,497,497,498,498,499,500,500,501,501,501,499,498,498,497,497,497,497,497,497,497,499,0,0,0,514,515,517,517,518,518,518,519,519,519,520,519,520,520,816,815,815,811,808,806,802,791,786,780,0,772,764,0,0,0,0,0,0,0,785,0,772,0,757,754,754,753,752,751,752,754,755,757,764,769,773,776,778,779,774,769,761,0,0,0,718,710,707,704,702,0,0,0,0,0,0,0,0,0,0,0,0,0,0,0,574,565,563,561,560,559,557,556,555,554,552,550,549,548,547,546,545,545,544,544,544,544,544,543,542,541,542,540,540,541,544,547,0,0,560,562,563,564,564,563,562,561,559,558,556,555,554,0,0,556,557,0,0,0,0,0,0,0,0,0,0,0,0,0,0,0,0,0,0,0,0,0,0,0,0,0,0,0,0,0,0,0,0,0,0,0,0,0
444,0,445,446,447,447,447,448,448,449,449,449,449,449,449,449,450,451,451,451,0,0,454,0,0,0,0,0,0,0,0,0,0,0,0,0,0,0,0,0,0,0,0,0,0,0,0,0,0,0,0,0,0,0,0,0,0,0,0,483,484,484,484,485,485,486,486,486,486,486,486,486,486,486,487,487,487,487,488,489,489,490,490,490,489,489,488,488,487,487,486,486,486,485,484,484,482,481,481,479,480,480,480,480,481,481,481,481,482,482,482,483,483,484,485,486,487,490,491,493,495,495,496,497,497,497,499,499,500,500,500,501,502,503,503,503,503,503,501,500,499,498,498,498,498,498,498,499,500,502,506,0,514,515,517,518,518,518,519,519,520,520,520,521,521,521,813,811,810,807,802,800,798,792,780,773,766,758,748,748,0,0,0,0,0,0,0,0,744,747,747,747,747,747,748,748,749,751,751,752,758,762,765,768,768,0,764,761,752,745,0,0,715,709,705,702,700,0,0,0,0,0,0,0,0,0,0,0,0,0,0,585,578,566,564,563,561,560,558,557,557,556,553,552,551,550,548,548,547,546,546,545,546,546,545,544,544,543,544,542,541,544,546,549,558,561,561,565,566,566,565,565,563,562,559,556,553,551,550,549,549,550,551,553,558,560,0,566,567,568,0,0,0,0,0,0,0,0,0,0,0,0,0,0,0,0,0,0,0,0,0,0,0,0,0,0,0,0,0,0
444,445,445,446,447,447,447,447,448,448,448,448,449,448,449,449,450,450,450,450,452,0,454,456,457,0,0,0,0,0,0,0,0,0,0,0,0,0,0,0,0,0,0,0,0,0,0,0,0,0,0,0,0,0,0,0,0,0,483,484,484,484,485,485,486,486,486,487,487,487,487,487,487,487,487,487,488,488,489,489,490,490,490,490,489,489,488,488,487,486,486,486,485,484,484,483,482,481,480,480,479,479,479,480,480,481,481,481,481,482,482,482,483,483,484,485,487,490,492,493,496,497,497,498,499,500,500,502,502,504,505,506,506,507,506,507,507,506,504,503,502,502,501,501,501,500,501,501,503,504,0,0,0,516,518,518,518,519,519,520,520,520,521,521,521,521,809,807,806,801,796,794,792,787,776,767,759,750,740,0,0,0,0,0,0,0,0,0,731,734,736,737,739,739,740,741,746,748,748,750,754,758,761,761,761,761,760,754,748,740,0,0,722,708,705,701,0,696,686,0,670,663,658,653,644,641,636,631,620,612,600,592,575,569,565,564,563,561,560,559,558,557,555,554,553,552,550,549,549,548,548,547,548,550,0,547,546,0,546,544,543,547,551,0,560,563,569,570,571,569,568,566,565,563,559,556,553,550,548,547,547,547,549,551,556,559,561,565,567,568,568,0,0,0,0,0,0,0,0,0,0,0,0,0,0,0,0,0,0,0,0,0,0,0,0,0,0,0,0,0
444,445,445,445,446,447,446,447,447,447,448,447,447,447,448,448,448,449,449,450,451,0,453,455,456,457,0,0,0,462,0,0,0,0,0,0,0,0,0,0,0,0,0,0,0,0,0,0,0,0,0,0,0,0,0,0,0,0,0,0,0,484,485,485,486,486,486,486,486,487,487,487,487,487,487,488,488,489,489,490,490,490,490,490,489,489,488,488,487,486,486,485,485,484,482,482,481,480,479,479,479,479,479,479,480,481,481,0,0,482,482,482,483,483,484,485,486,490,492,494,497,498,499,500,0,503,503,505,505,506,0,0,0,0,508,508,508,507,506,505,503,503,502,502,502,502,501,503,0,505,507,511,513,515,518,518,518,519,520,520,520,521,521,521,521,521,522,806,805,800,795,794,791,786,769,0,0,739,730,0,0,0,0,0,0,0,0,0,723,726,729,731,730,732,733,734,735,739,739,742,746,748,748,747,747,744,740,736,728,725,720,715,710,701,699,696,693,689,679,674,668,663,659,655,647,644,640,638,632,627,0,0,0,574,569,567,566,564,563,562,561,560,558,557,556,555,554,553,553,552,551,551,552,552,550,549,548,0,547,546,545,549,553,0,563,566,571,572,572,571,570,568,566,564,559,556,552,549,547,545,544,545,547,548,554,557,560,565,566,567,568,0,0,0,0,0,0,0,0,0,0,0,0,0,0,0,0,0,0,0,0,0,0,0,0,0,0,0,0,0
