# .PCD v0.7 - Point Cloud Data file format
VERSION 0.7
FIELDS x y z
SIZE 4 4 4
TYPE F F F
COUNT 1 1 1
WIDTH 327
HEIGHT 1
VIEWPOINT 0 0 0 1 0 0 0
POINTS 327
DATA ascii
457.5362015 106.3614266 583
459.7852547 106.1789884 582
462.0238823 105.9965503 581
462.651215 105.4492359 578
464.0529183 105.0843597 576
464.6229102 104.5370453 573
465.1616253 103.9897309 570
453.7175559 109.2128378 582
457.5362015 109.4004887 583
449.1349653 111.8609598 580
452.9379725 112.0538235 581
457.5362015 112.4395509 583
448.3605946 114.686307 579
452.1583891 114.8843836 580
456.7514053 115.2805366 582
446.0374827 117.0946501 576
449.8196388 117.2979394 577
443.7143709 119.4717163 573
447.4808885 119.6802184 574
450.4730355 119.6802184 574
441.391259 121.8175057 570
444.3625548 121.8175057 570
446.5490543 121.6037908 569
440.209203 114.5511984 536
441.3502664 114.1237685 534
435.1962939 123.0373797 562
436.5667205 122.5995243 560
438.701092 122.3805966 559
439.24502 121.7238134 556
441.0304889 117.5641867 537
442.176765 117.1263312 535
431.3244408 124.8462705 557
433.4483868 124.62213 556
435.5619071 124.3979895 555
436.0849838 123.7255679 552
436.5767838 123.0531464 549
439.8633615 120.8117411 539
441.8517747 120.5876006 538
443.0032636 120.1393196 536
429.0013289 127.06174 554
430.330053 126.6030333 552
433.2075184 126.6030333 552
434.5049658 126.1443267 550
434.1911183 125.2269134 546
435.4364376 124.7682068 544
437.4665532 124.5388534 543
439.4862432 124.3095001 542
440.6794345 123.8507935 540
441.8517747 123.3920868 538
443.0032636 122.9333802 536
426.678217 129.2459326 551
427.9913027 128.7768004 549
430.0683335 128.5422342 548
432.1349387 128.3076681 547
431.8054528 127.3694036 543
433.8355684 127.1348375 542
436.6609058 127.1348375 542
439.4862432 127.1348375 542
439.8633615 126.4311392 539
441.8517747 126.196573 538
443.0032636 125.7274408 536
421.2576226 130.4397328 544
423.3138022 130.1999539 543
425.3595561 129.9601749 542
427.3948845 129.720396 541
429.4197873 129.4806171 540
432.2346991 129.4806171 540
435.0496109 129.4806171 540
437.8645227 129.4806171 540
439.8633615 129.2408382 539
441.8517747 129.0010592 538
443.0032636 128.5215014 536
418.9345107 132.5405206 541
420.9750519 132.2955289 540
423.0051675 132.0505372 539
425.8148665 132.0505372 539
428.6245655 132.0505372 539
430.6338299 131.8055455 538
433.4383161 131.8055455 538
437.0536625 132.0505372 539
439.8633615 132.0505372 539
441.0304889 131.5605537 537
442.176765 131.0705703 535
416.6113988 134.6100317 538
418.6363016 134.3598271 537
421.435575 134.3598271 537
424.2348484 134.3598271 537
426.2389 134.1096226 536
429.0329606 134.1096226 536
432.6326686 134.3598271 537
435.431942 134.3598271 537
438.2312155 134.3598271 537
440.209203 134.1096226 536
441.3502664 133.6092136 534
415.0626576 136.9036832 536
416.2975513 136.3928486 534
418.2963901 136.1374313 533
421.8648213 136.3928486 534
424.6484563 136.3928486 534
427.4320913 136.3928486 534
431.0213738 136.6482659 535
434.6210818 136.9036832 536
437.4151424 136.9036832 536
438.5666314 136.3928486 534
440.5237678 136.1374313 533
411.1908044 138.3945932 531
413.1792176 138.1339631 530
415.1572052 137.873333 529
418.7047852 138.1339631 530
421.467569 138.1339631 530
425.0307875 138.3945932 531
428.6044315 138.6552234 532
431.3776409 138.6552234 532
434.1508503 138.6552234 532
436.1027739 138.3945932 531
438.0442719 138.1339631 530
409.6420631 140.630904 529
411.6200507 140.3650611 528
414.3724089 140.3650611 528
417.1247672 140.3650611 528
420.6723472 140.630904 529
423.4299182 140.630904 529
427.7987841 141.1625899 531
430.5667807 141.1625899 531
433.3347773 141.1625899 531
436.1027739 141.1625899 531
438.0442719 140.8967469 530
408.8676925 143.1174193 528
410.8404673 142.8463636 527
413.5876127 142.8463636 527
416.3347581 142.8463636 527
419.8771254 143.1174193 528
422.6294836 143.1174193 528
426.9931366 143.6595308 530
429.7559205 143.6595308 530
433.3347773 143.9305865 531
435.2814881 143.6595308 530
437.2177733 143.388475 529
408.0933219 145.593509 527
410.0608839 145.3172405 526
412.8028165 145.3172405 526
415.5447491 145.3172405 526
418.2866817 145.3172405 526
422.6294836 145.8697775 528
426.1874892 146.146046 529
429.7559205 146.4223146 530
432.5187043 146.4223146 530
435.2814881 146.4223146 530
437.2177733 146.146046 529
406.5445806 147.7776918 525
408.501717 147.4962105 524
410.4484278 147.2147291 523
413.174722 147.2147291 523
416.6962381 147.4962105 524
420.2281797 147.7776918 525
422.9648995 147.7776918 525
427.3233398 148.3406544 527
430.0704852 148.3406544 527
432.8176306 148.3406544 527
434.7382774 148.0591731 526
407.7221336 149.9410234 523
409.6636316 149.6543292 522
412.384713 149.6543292 522
415.1057944 149.6543292 522
418.6273104 149.9410234 523
421.3536047 149.9410234 523
425.7016193 150.5144116 525
429.2544122 150.8011057 526
431.9963448 150.8011057 526
433.9117788 150.5144116 525
406.9425502 152.3754107 522
408.0940391 151.7915968 520
410.8046949 151.7915968 520
414.3105726 152.0835037 521
417.0264412 152.0835037 521
419.7423098 152.0835037 521
424.0798989 152.6673176 523
427.6222661 152.9592245 524
430.3537731 152.9592245 524
433.0852801 152.9592245 524
406.1629667 154.7993724 521
407.3092429 154.2051329 519
409.2246769 153.9080132 518
412.7201289 154.2051329 519
415.4255719 154.2051329 519
418.1310149 154.2051329 519
422.4581784 154.7993724 521
425.174047 154.7993724 521
428.7112015 155.0964921 522
431.4322829 155.0964921 522
404.9548542 156.0035784 516
406.8546498 155.7012459 515
409.5392416 155.7012459 515
411.4233988 155.3989134 514
414.1027778 155.3989134 514
416.7821568 155.3989134 514
421.0936819 156.0035784 516
424.6047723 156.3059109 517
427.2997897 156.3059109 517
403.3852617 158.0782924 514
405.2746317 157.7707471 513
407.9487979 157.7707471 513
409.8225295 157.4632017 512
411.6858355 157.1556564 511
414.3495761 157.1556564 511
418.6454628 157.7707471 513
422.1409149 158.0782924 514
424.8202939 158.0782924 514
403.6946137 159.819397 511
406.3583543 159.819397 511
408.2216603 159.5066389 510
410.0745407 159.1938808 509
412.7278557 159.1938808 509
416.1972437 159.5066389 510
419.6770574 159.819397 511
422.340798 159.819397 511
401.3245866 161.5292249 508
404.7679106 161.8471958 509
406.620791 161.5292249 508
408.4632458 161.211254 507
411.1061352 161.211254 507
413.7490246 161.211254 507
418.0344857 161.8471958 509
420.6878007 161.8471958 509
399.7445685 163.5309597 506
401.5870233 163.207776 505
404.2194871 163.207776 505
406.851951 163.207776 505
409.4844148 163.207776 505
412.9329516 163.5309597 506
416.3919141 163.8541434 507
419.8613021 164.1773271 508
398.1645505 165.5118433 504
400.7918015 165.5118433 504
403.4190525 165.5118433 504
406.0463035 165.5118433 504
408.6735545 165.5118433 504
412.1168786 165.8402398 505
416.3919141 166.4970328 507
419.8613021 166.8254294 508
396.5845324 167.4718757 502
399.9965797 167.805485 503
402.6186179 167.805485 503
405.2406561 167.805485 503
407.8626943 167.805485 503
411.3008056 168.1390943 504
415.5706282 168.8063129 506
419.8613021 169.4735316 508
395.0045144 169.4110569 500
398.406136 169.749879 501
401.8181832 170.0887011 502
404.4350087 170.0887011 502
407.8626943 170.4275232 503
410.4847325 170.4275232 503
415.5706282 171.4439896 506
419.0348035 171.7828117 507
392.6344873 170.985352 497
396.0204705 171.3293869 498
400.217314 172.0174567 500
403.6293612 172.3614916 501
407.0518341 172.7055265 502
410.4847325 173.0495614 503
415.5706282 174.0816662 506
419.0348035 174.4257011 507
395.2252487 173.5761134 497
399.4168794 174.2746088 499
403.6293612 174.9731042 501
407.0518341 175.322352 502
410.4847325 175.6715997 503
414.7493424 176.3700951 505
419.0348035 177.0685905 507
393.634805 175.4579538 495
397.8160101 176.1668748 497
402.0180664 176.8757958 499
406.2409739 177.5847169 501
409.6686595 177.9391774 502
414.7493424 179.0025589 505
418.2083049 179.3570194 506
392.0443614 177.318943 493
397.0155755 178.3979629 496
401.212419 179.1173095 498
404.6192534 179.4769829 499
408.8525865 180.1963295 501
413.9280566 181.2753494 504
418.2083049 181.994696 506
394.6142716 179.8888532 493
398.7954767 180.6186254 495
402.1866727 180.9835115 496
405.5882944 181.3483977 497
412.2854849 183.1728282 502
415.728809 183.5377143 503
389.0112292 179.8680711 486
395.572887 181.7185656 491
399.754092 182.4587634 493
403.9561483 183.1989613 495
409.0003416 184.309258 498
414.0758117 185.4195547 501
385.8094907 180.9002448 482
390.7390024 182.02618 485
396.5106511 183.5274268 489
401.5079292 184.6533619 492
406.5364841 185.7792971 495
412.4228145 187.2805439 499
386.7107653 182.6517652 480
394.8889307 185.3154368 487
399.0597102 186.0764858 489
404.8939125 187.5985839 493
410.7698172 189.1206819 497
387.5911886 184.3824344 478
394.979345 186.6968583 484
401.6087692 188.6255449 489
408.2903213 190.5542314 494
385.158608 185.7013023 475
393.347199 188.4379531 482
399.9661975 190.3927037 487
406.6373241 192.3474542 492
383.5368875 187.3850564 473
397.5023401 191.7428484 484
403.3313296 193.3275 488
395.8597684 193.463092 482
401.6783323 195.0685948 486
388.4507608 193.5361304 476
393.3959109 194.7558959 479
398.3723378 195.9756614 482
386.8186148 195.1938204 474
392.5746251 196.8410256 478
397.5458392 198.0764295 481
