# .PCD v0.7 - Point Cloud Data file format
VERSION 0.7
FIELDS x y z
SIZE 4 4 4
TYPE F F F
COUNT 1 1 1
WIDTH 1663
HEIGHT 1
VIEWPOINT 0 0 0 1 0 0 0
POINTS 1663
DATA ascii
276.7048769 -191.18425 489
279.2539359 -191.18425 489
281.2267107 -190.7932802 488
283.770557 -190.7932802 488
286.901113 -191.18425 489
289.4501721 -191.18425 489
292.5963665 -191.5752198 490
295.7529866 -191.9661897 491
298.9200323 -192.3571595 492
302.0975035 -192.7481293 493
304.6674137 -192.7481293 493
307.237324 -192.7481293 493
309.8072342 -192.7481293 493
312.3771444 -192.7481293 493
325.2266955 -192.7481293 493
327.7966058 -192.7481293 493
177.6012892 -191.7212473 497
179.4669317 -190.9497332 495
180.5761785 -189.406705 491
182.0167079 -188.2494339 488
183.0477627 -186.7064058 484
182.8868831 -184.0061065 477
184.2075182 -182.8488354 474
185.8907127 -182.0773213 472
187.9521051 -181.6915643 471
189.59881 -180.9200502 469
191.6341384 -180.5342932 468
193.6590412 -180.1485362 467
196.0934186 -180.1485362 467
241.3949914 -190.9497332 495
244.9610862 -191.7212473 497
248.0499398 -192.1070043 498
251.6525241 -192.8785184 500
254.7674418 -193.2642754 501
257.3790544 -193.2642754 501
259.4717236 -192.8785184 500
261.5539672 -192.4927613 499
264.1551542 -192.4927613 499
265.6871775 -191.7212473 497
268.277939 -191.7212473 497
269.233678 -190.5639761 494
271.2585808 -190.1782191 493
273.273058 -189.7924621 492
275.2771096 -189.406705 491
277.2707356 -189.020948 490
279.2539359 -188.635191 489
281.2267107 -188.2494339 488
284.352054 -188.635191 489
286.901113 -188.635191 489
290.6340173 -189.406705 491
293.193502 -189.406705 491
296.3553348 -189.7924621 492
299.5275933 -190.1782191 493
303.3230512 -190.9497332 495
305.2854004 -190.5639761 494
307.8605234 -190.5639761 494
310.4356464 -190.5639761 494
313.0107695 -190.5639761 494
321.385402 -190.9497332 495
324.620214 -191.3354902 496
326.5460736 -190.9497332 495
329.1264094 -190.9497332 495
331.7067453 -190.9497332 495
478.8071525 -273.501739 709
177.6012892 -189.1304858 497
179.4669317 -188.3693974 495
180.5761785 -186.8472204 491
182.5034725 -181.1390569 476
183.8188947 -179.9974241 473
185.4968765 -179.2363357 471
187.553056 -178.8557914 470
189.59881 -178.4752472 469
191.2246637 -177.7141587 467
193.6590412 -177.7141587 467
196.0934186 -177.7141587 467
198.527796 -177.7141587 467
200.9621735 -177.7141587 467
205.1387055 -179.2363357 471
208.9161885 -180.3779684 474
211.3870555 -180.3779684 474
215.6626308 -181.9001453 478
219.5235186 -183.041778 481
222.9540805 -183.8028665 483
227.3391245 -185.3250435 487
230.3497862 -185.7055877 488
233.3708735 -186.0861319 489
236.8848402 -186.8472204 491
240.4196581 -187.6083089 493
244.4682067 -188.7499416 496
247.5518476 -189.1304858 497
251.1492191 -189.8915743 499
253.7504061 -189.8915743 499
256.3515931 -189.8915743 499
258.9527802 -189.8915743 499
261.0298109 -189.5110301 498
263.6257852 -189.5110301 498
265.6871775 -189.1304858 497
267.7381443 -188.7499416 496
268.6886706 -187.6083089 493
270.7083606 -187.2277646 492
273.273058 -187.2277646 492
275.2771096 -186.8472204 491
277.8365942 -186.8472204 491
279.8250074 -186.4666762 490
281.802995 -186.0861319 489
284.933551 -186.4666762 490
288.0745327 -186.8472204 491
291.8178626 -187.6083089 493
294.3877728 -187.6083089 493
297.5600313 -187.9888531 494
300.7427154 -188.3693974 495
303.935825 -188.7499416 496
305.903387 -188.3693974 495
308.4837228 -188.3693974 495
311.0640587 -188.3693974 495
313.6443945 -188.3693974 495
321.385402 -188.3693974 495
325.2746903 -189.1304858 497
328.5251407 -189.5110301 498
330.4562131 -189.1304858 497
333.7170892 -189.5110301 498
177.6012892 -186.5397244 497
179.4669317 -185.7890615 495
180.5761785 -184.2877358 491
182.1200618 -178.2824328 475
183.4302713 -177.1564385 472
185.1030402 -176.4057756 470
186.7549579 -175.6551127 468
188.7902863 -175.2797813 467
190.8151891 -174.9044499 466
193.2443537 -174.9044499 466
195.6735184 -174.9044499 466
198.102683 -174.9044499 466
200.5318476 -174.9044499 466
204.2676282 -176.0304442 469
207.5939342 -176.781107 471
210.9410913 -177.5317699 473
215.2114537 -179.0330957 477
218.6107389 -179.7837585 479
222.0308752 -180.5344214 481
225.4718627 -181.2850843 483
229.877758 -182.78641 487
232.8936324 -183.1617415 488
236.4023864 -183.9124043 490
240.4196581 -185.0383987 493
243.9753273 -185.7890615 495
247.0537553 -186.164393 496
250.645914 -186.9150558 498
253.7504061 -187.2903873 499
256.3515931 -187.2903873 499
258.4338367 -186.9150558 498
260.5056547 -186.5397244 497
263.0964161 -186.5397244 497
265.6871775 -186.5397244 497
267.1983497 -185.7890615 495
268.6886706 -185.0383987 493
270.7083606 -184.6630672 492
273.273058 -184.6630672 492
275.8377554 -184.6630672 492
277.8365942 -184.2877358 491
280.3960788 -184.2877358 491
282.3792792 -183.9124043 490
288.6612426 -184.6630672 492
291.8178626 -185.0383987 493
294.3877728 -185.0383987 493
297.5600313 -185.4137301 494
300.7427154 -185.7890615 495
303.3230512 -185.7890615 495
305.903387 -185.7890615 495
308.4837228 -185.7890615 495
311.0640587 -185.7890615 495
313.6443945 -185.7890615 495
315.5858925 -185.4137301 494
318.1610155 -185.4137301 494
321.385402 -185.7890615 495
325.2746903 -186.5397244 497
329.1848298 -187.2903873 499
331.7860168 -187.2903873 499
334.3872038 -187.2903873 499
177.6012892 -183.948963 497
179.1043722 -182.8386071 494
181.6437229 -180.2477766 487
182.1200618 -175.806353 475
183.4302713 -174.695997 472
185.1030402 -173.9557598 470
186.7549579 -173.2155225 468
188.7902863 -172.8454039 467
190.8151891 -172.4752852 466
193.2443537 -172.4752852 466
195.6735184 -172.4752852 466
198.102683 -172.4752852 466
200.9621735 -172.8454039 467
204.2676282 -173.5856411 469
207.1531827 -173.9557598 470
210.495127 -174.695997 472
213.4067455 -175.0661157 473
217.6979592 -176.5465902 477
221.1076699 -177.2868275 479
225.0050473 -178.3971834 482
228.9337015 -179.5075393 485
232.4163914 -180.2477766 487
235.4374787 -180.6178952 488
246.0575708 -182.8386071 494
249.1359989 -183.2087257 495
252.7333704 -183.948963 497
255.3241318 -183.948963 497
257.9148933 -183.948963 497
259.9814984 -183.5788444 496
262.5670471 -183.5788444 496
265.1525957 -183.5788444 496
267.1983497 -183.2087257 495
268.6886706 -182.4684884 493
271.2585808 -182.4684884 493
273.273058 -182.0983698 492
275.8377554 -182.0983698 492
277.8365942 -181.7282512 491
280.3960788 -181.7282512 491
282.3792792 -181.3581325 490
288.6612426 -182.0983698 492
291.8178626 -182.4684884 493
294.3877728 -182.4684884 493
296.9576831 -182.4684884 493
300.1351543 -182.8386071 494
303.3230512 -183.2087257 495
305.903387 -183.2087257 495
307.8605234 -182.8386071 494
310.4356464 -182.8386071 494
313.0107695 -182.8386071 494
315.5858925 -182.8386071 494
318.8050661 -183.2087257 495
321.385402 -183.2087257 495
325.9291665 -184.3190816 498
329.1848298 -184.6892003 499
332.4509186 -185.0593189 500
335.0573184 -185.0593189 500
339.0143731 -185.7995562 502
177.6012892 -181.3582016 497
179.4669317 -180.6283899 495
180.5761785 -179.1687665 491
182.5034725 -173.695179 476
183.8188947 -172.6004614 473
185.4968765 -171.8706498 471
187.154007 -171.1408381 469
189.1945482 -170.7759323 468
191.2246637 -170.4110264 467
193.2443537 -170.0461206 466
195.6735184 -170.0461206 466
198.102683 -170.0461206 466
200.9621735 -170.4110264 467
204.2676282 -171.1408381 469
207.1531827 -171.5057439 470
210.495127 -172.2355556 472
213.8579226 -172.9653673 474
218.154349 -174.4249906 478
221.1076699 -174.7898965 479
225.4718627 -176.2495198 483
228.9337015 -176.9793315 485
231.9391503 -177.3442373 486
235.4374787 -178.074049 488
238.9566582 -178.8038607 490
242.0038095 -179.1687665 491
245.5594786 -179.8985782 493
248.6326939 -180.2634841 494
251.7163347 -180.6283899 495
254.8104012 -180.9932957 496
256.8770064 -180.6283899 495
259.9814984 -180.9932957 496
262.037678 -180.6283899 495
264.6180138 -180.6283899 495
267.1983497 -180.6283899 495
268.6886706 -179.8985782 493
271.2585808 -179.8985782 493
273.828491 -179.8985782 493
276.3984013 -179.8985782 493
278.9683115 -179.8985782 493
280.9671503 -179.5336724 492
282.9555635 -179.1687665 491
286.0965451 -179.5336724 492
289.2479524 -179.8985782 493
291.8178626 -179.8985782 493
294.3877728 -179.8985782 493
296.9576831 -179.8985782 493
300.1351543 -180.2634841 494
302.7102774 -180.2634841 494
305.2854004 -180.2634841 494
310.4356464 -180.2634841 494
313.0107695 -180.2634841 494
315.5858925 -180.2634841 494
318.8050661 -180.6283899 495
321.385402 -180.6283899 495
326.5836427 -182.0880132 499
330.5042078 -182.8178249 501
333.1158205 -182.8178249 501
335.7274331 -182.8178249 501
339.6897006 -183.5476366 503
177.6012892 -178.7674401 497
179.1043722 -177.688361 494
180.5761785 -176.6092819 491
182.0167079 -175.5302028 488
183.2702938 -171.9332724 478
184.9847651 -171.2138863 476
186.284549 -170.1348072 473
188.3511542 -169.7751142 472
190.4073337 -169.4154211 471
192.0436131 -168.6960351 469
194.0737286 -168.336342 468
196.5133189 -168.336342 468
198.9529091 -168.336342 468
201.3924993 -168.336342 468
204.2676282 -168.6960351 469
207.5939342 -169.4154211 471
213.4067455 -170.1348072 473
218.154349 -171.9332724 478
221.1076699 -172.2929654 479
224.5382318 -173.0123515 481
228.4616732 -174.0914306 484
231.9391503 -174.8108167 486
234.9550248 -175.1705098 487
245.0613863 -176.9689749 492
248.1293888 -177.328668 493
251.2078169 -177.688361 494
254.2966705 -178.0480541 495
256.3580629 -177.688361 494
259.4573422 -178.0480541 495
262.037678 -178.0480541 495
264.6180138 -178.0480541 495
267.1983497 -178.0480541 495
269.233678 -177.688361 494
271.8088011 -177.688361 494
274.3839241 -177.688361 494
276.9590471 -177.688361 494
279.5341701 -177.688361 494
281.5382217 -177.328668 493
285.2607004 -178.0480541 495
287.8410363 -178.0480541 495
290.4213721 -178.0480541 495
293.0017079 -178.0480541 495
294.9849083 -177.688361 494
297.5600313 -177.688361 494
300.1351543 -177.688361 494
303.3230512 -178.0480541 495
310.4356464 -177.688361 494
313.6443945 -178.0480541 495
322.6839288 -178.7674401 497
327.238119 -179.8465193 500
331.1638969 -180.5659053 502
334.4456241 -180.9255984 503
337.0676624 -180.9255984 503
177.6012892 -176.1766787 497
179.1043722 -175.113238 494
180.9439507 -174.4042775 492
182.389693 -173.3408368 489
183.0477627 -171.5684356 484
184.8039364 -170.8594751 482
185.762012 -169.4415542 478
187.4660577 -168.7325937 476
189.1492523 -168.0236332 474
191.2158574 -167.669153 473
193.272037 -167.3146727 472
195.317791 -166.9601925 471
197.7730196 -166.9601925 471
199.8031352 -166.6057123 470
202.253151 -166.6057123 470
215.2114537 -169.0870739 477
218.6107389 -169.7960344 479
225.0050473 -170.8594751 482
228.9337015 -171.9229159 485
231.9391503 -172.2773961 486
235.4374787 -172.9863566 488
244.5632941 -174.0497973 491
247.6260838 -174.4042775 492
250.699299 -174.7587578 493
253.7829399 -175.113238 494
256.3580629 -175.113238 494
258.9331859 -175.113238 494
262.037678 -175.4677182 495
264.6180138 -175.4677182 495
267.1983497 -175.4677182 495
269.7786855 -175.4677182 495
272.3590213 -175.4677182 495
274.9393571 -175.4677182 495
278.0803388 -175.8221985 496
280.6658874 -175.8221985 496
283.2514361 -175.8221985 496
285.2607004 -175.4677182 495
287.8410363 -175.4677182 495
290.4213721 -175.4677182 495
293.0017079 -175.4677182 495
294.9849083 -175.113238 494
296.9576831 -174.7587578 493
300.1351543 -175.113238 494
302.7102774 -175.113238 494
305.903387 -175.4677182 495
308.4837228 -175.4677182 495
311.0640587 -175.4677182 495
323.3331923 -176.531159 498
327.8925952 -177.5945997 501
331.1638969 -177.9490799 502
334.4456241 -178.3035602 503
337.0676624 -178.3035602 503
177.2439425 -173.2366499 496
179.4669317 -172.8873824 495
181.311723 -172.1888475 493
183.1356631 -171.4903127 491
184.1823563 -170.0932429 487
185.9541684 -169.394708 485
187.7051293 -168.6961731 483
189.8290753 -168.3469057 482
191.5435466 -167.6483708 480
193.2371667 -166.949836 478
195.3194103 -166.6005685 477
197.3912283 -166.2513011 476
199.8725209 -166.2513011 476
202.3538135 -166.2513011 476
212.7249483 -166.6005685 477
215.6626308 -166.949836 478
222.0308752 -167.9976383 481
225.0050473 -168.3469057 482
228.4616732 -169.0454406 484
231.9391503 -169.7439755 486
244.0652018 -171.1410452 490
247.1227787 -171.4903127 491
250.1907812 -171.8395801 492
252.7554786 -171.8395801 492
255.320176 -171.8395801 492
257.8848735 -171.8395801 492
260.9789399 -172.1888475 493
263.5488502 -172.1888475 493
266.658555 -172.538115 494
269.233678 -172.538115 494
272.3590213 -172.8873824 495
274.9393571 -172.8873824 495
278.0803388 -173.2366499 496
280.6658874 -173.2366499 496
283.2514361 -173.2366499 496
285.8369847 -173.2366499 496
288.4225333 -173.2366499 496
290.4213721 -172.8873824 495
293.0017079 -172.8873824 495
294.9849083 -172.538115 494
296.9576831 -172.1888475 493
300.1351543 -172.538115 494
302.7102774 -172.538115 494
305.903387 -172.8873824 495
308.4837228 -172.8873824 495
311.0640587 -172.8873824 495
317.502406 -173.5859173 497
320.0931674 -173.5859173 497
323.3331923 -173.9351847 498
327.8925952 -174.9829871 501
331.1638969 -175.3322545 502
334.4456241 -175.6815219 503
337.0676624 -175.6815219 503
177.2439425 -170.6511012 496
179.4669317 -170.3070466 495
181.311723 -169.6189373 493
183.5086481 -169.2748827 492
184.5605541 -167.8986641 488
186.7209897 -167.5546095 487
188.8709997 -167.2105548 486
190.6167478 -166.5224456 484
192.7406938 -166.1783909 483
194.0456904 -165.146227 480
196.1383596 -164.8021724 479
198.2206032 -164.4581177 478
200.7123214 -164.4581177 478
203.2040396 -164.4581177 478
205.265432 -164.1140631 477
207.7519374 -164.1140631 477
213.1709126 -164.4581177 478
218.6107389 -164.8021724 479
245.6128636 -167.8986641 488
248.6652276 -168.2427188 489
251.7280173 -168.5867734 490
254.2822891 -168.5867734 490
256.836561 -168.5867734 490
262.4796865 -168.930828 491
265.5789657 -169.2748827 492
268.6886706 -169.6189373 493
271.8088011 -169.962992 494
274.9393571 -170.3070466 495
278.0803388 -170.6511012 496
281.2317461 -170.9951559 497
283.8225075 -170.9951559 497
285.8369847 -170.6511012 496
287.8410363 -170.3070466 495
289.8346622 -169.962992 494
292.4097853 -169.962992 494
294.3877728 -169.6189373 493
296.9576831 -169.6189373 493
299.5275933 -169.6189373 493
302.7102774 -169.962992 494
305.2854004 -169.962992 494
307.8605234 -169.962992 494
310.4356464 -169.962992 494
313.6443945 -170.3070466 495
316.2247303 -170.3070466 495
320.0931674 -170.9951559 497
323.3331923 -171.3392105 498
327.8925952 -172.3713744 501
330.5042078 -172.3713744 501
334.4456241 -173.0594837 503
337.0676624 -173.0594837 503
177.2439425 -168.0655526 496
179.4669317 -167.7267108 495
181.6794952 -167.3878689 494
183.8816332 -167.0490271 493
185.6951477 -166.3713434 491
187.487811 -165.6936597 489
189.6482466 -165.3548179 488
191.4044203 -164.6771342 486
193.5387919 -164.3382924 485
194.8542141 -163.3217669 482
196.9573089 -162.982925 481
199.4646655 -162.982925 481
201.5521219 -162.6440832 480
203.6291527 -162.3052413 479
206.1260837 -162.3052413 479
208.1874761 -161.9663995 478
213.1709126 -161.9663995 478
216.1138078 -162.3052413 479
218.6107389 -162.3052413 479
221.5692725 -162.6440832 480
224.0714164 -162.6440832 480
227.0455885 -162.982925 481
229.5529451 -162.982925 481
232.5427556 -163.3217669 482
235.055325 -163.3217669 482
238.5536533 -163.9994505 484
241.5747406 -164.3382924 485
244.1029484 -164.3382924 485
247.1396741 -164.6771342 486
250.1868254 -165.0159761 487
253.2444022 -165.3548179 488
255.7882485 -165.3548179 488
257.8027256 -165.0159761 487
260.3413591 -165.0159761 487
262.8799925 -165.0159761 487
265.9636334 -165.3548179 488
269.0576998 -165.6936597 489
274.3839241 -167.3878689 494
276.3984013 -167.0490271 493
280.1000288 -167.7267108 495
282.6803646 -167.7267108 495
285.2607004 -167.7267108 495
288.4225333 -168.0655526 496
290.4213721 -167.7267108 495
293.0017079 -167.7267108 495
294.9849083 -167.3878689 494
296.9576831 -167.0490271 493
300.1351543 -167.3878689 494
302.7102774 -167.3878689 494
304.6674137 -167.0490271 493
307.237324 -167.0490271 493
309.8072342 -167.0490271 493
313.6443945 -167.7267108 495
316.2247303 -167.7267108 495
319.4491168 -168.0655526 496
322.6839288 -168.4043944 497
327.238119 -169.42092 500
330.5042078 -169.7597618 501
334.4456241 -170.4374455 503
337.0676624 -170.4374455 503
177.2439425 -165.480004 496
179.4669317 -165.1463749 495
181.6794952 -164.8127459 494
183.8816332 -164.4791169 493
185.6951477 -163.8118588 491
187.8712217 -163.4782297 490
190.03687 -163.1446007 489
192.1920928 -162.8109717 488
193.9378409 -162.1437136 486
195.6627378 -161.4764555 484
198.1857329 -161.4764555 484
199.879353 -160.8091974 482
202.3919224 -160.8091974 482
204.4793788 -160.4755684 481
206.5564096 -160.1419393 480
208.6230147 -159.8083103 479
211.1199458 -159.8083103 479
213.6168768 -159.8083103 479
216.1138078 -159.8083103 479
219.0671287 -160.1419393 480
221.5692725 -160.1419393 480
224.0714164 -160.1419393 480
226.5735602 -160.1419393 480
229.5529451 -160.4755684 481
232.0603017 -160.4755684 481
234.5676583 -160.4755684 481
237.5678944 -160.8091974 482
240.0804638 -160.8091974 482
243.0963383 -161.1428265 483
245.6141205 -161.1428265 483
249.6730947 -162.1437136 486
252.2065153 -162.1437136 486
255.2640922 -162.4773426 487
256.2146185 -161.4764555 484
258.7376135 -161.4764555 484
260.1810193 -160.8091974 482
263.7836036 -161.4764555 484
266.8568189 -161.8100845 485
274.1558179 -163.1446007 489
277.8365942 -163.8118588 491
282.6803646 -165.1463749 495
286.4132689 -165.813633 497
288.4225333 -165.480004 496
290.4213721 -165.1463749 495
293.5936305 -165.480004 496
295.5820437 -165.1463749 495
298.1623796 -165.1463749 495
300.7427154 -165.1463749 495
303.3230512 -165.1463749 495
305.903387 -165.1463749 495
308.4837228 -165.1463749 495
310.4356464 -164.8127459 494
313.6443945 -165.1463749 495
316.2247303 -165.1463749 495
318.8050661 -165.1463749 495
322.6839288 -165.813633 497
326.5836427 -166.4808911 499
329.8445188 -166.8145201 500
333.1158205 -167.1481492 501
336.3975477 -167.4817782 502
176.8865958 -162.5660391 495
179.4669317 -162.5660391 495
181.6794952 -162.2376229 494
183.8816332 -161.9092066 493
186.4515434 -161.9092066 493
188.638043 -161.5807904 492
190.814117 -161.2523742 491
192.9797653 -160.9239579 490
195.1349881 -160.5955417 489
196.8755234 -159.9387092 487
199.0046822 -159.610293 486
201.5381028 -159.610293 486
203.2317229 -158.9534605 484
205.3296049 -158.6250442 483
207.4170613 -158.296628 482
209.4940921 -157.9682118 481
212.0014487 -157.9682118 481
213.6168768 -157.3113793 479
216.1138078 -157.3113793 479
218.6107389 -157.3113793 479
221.1076699 -157.3113793 479
223.6046009 -157.3113793 479
226.5735602 -157.6397955 480
229.075704 -157.6397955 480
231.5778479 -157.6397955 480
234.0799917 -157.6397955 480
237.075015 -157.9682118 481
239.5823716 -157.9682118 481
242.0897282 -157.9682118 481
245.1056027 -158.296628 482
248.6456334 -158.9534605 484
251.6875719 -159.2818767 485
254.2157797 -159.2818767 485
256.5992862 -157.6397955 480
257.482046 -156.6545468 477
260.5135589 -156.982963 478
270.231297 -158.296628 482
275.007301 -159.610293 486
279.2539359 -160.5955417 489
284.6844162 -162.2376229 494
287.8410363 -162.5660391 495
290.4213721 -162.5660391 495
293.5936305 -162.8944554 496
296.1791792 -162.8944554 496
298.7647278 -162.8944554 496
301.3502764 -162.8944554 496
303.935825 -162.8944554 496
305.903387 -162.5660391 495
308.4837228 -162.5660391 495
310.4356464 -162.2376229 494
313.0107695 -162.2376229 494
315.5858925 -162.2376229 494
318.8050661 -162.5660391 495
321.385402 -162.5660391 495
325.2746903 -163.2228716 497
328.5251407 -163.5512878 498
332.4509186 -164.2081203 500
176.8865958 -159.9857033 495
179.4669317 -159.9857033 495
181.6794952 -159.6624999 494
184.2546183 -159.6624999 494
186.4515434 -159.3392964 493
189.0214536 -159.3392964 493
191.2027404 -159.016093 492
193.3736016 -158.6928895 491
195.5340371 -158.3696861 490
197.6840471 -158.0464827 489
199.8236315 -157.7232792 488
201.9527903 -157.4000758 487
204.0715234 -157.0768723 486
205.754718 -156.4304654 484
207.8473871 -156.107262 483
209.9296307 -155.7840586 482
212.0014487 -155.4608551 481
214.0628411 -155.1376517 480
216.5649849 -155.1376517 480
218.6107389 -154.8144482 479
221.5692725 -155.1376517 480
223.6046009 -154.8144482 479
226.101532 -154.8144482 479
228.598463 -154.8144482 479
231.095394 -154.8144482 479
233.592325 -154.8144482 479
236.0892561 -154.8144482 479
238.5861871 -154.8144482 479
241.0831181 -154.8144482 479
244.088567 -155.1376517 480
247.1044415 -155.4608551 481
249.6117981 -155.4608551 481
252.1191547 -155.4608551 481
254.7830728 -152.5520242 472
257.2435142 -152.5520242 472
266.8674219 -153.8448379 476
271.0462905 -154.8144482 479
275.8275073 -156.107262 483
282.9555635 -158.6928895 491
285.5150481 -158.6928895 491
288.0745327 -158.6928895 491
292.4097853 -159.6624999 494
295.5820437 -159.9857033 495
298.1623796 -159.9857033 495
300.7427154 -159.9857033 495
303.935825 -160.3089067 496
305.903387 -159.9857033 495
307.8605234 -159.6624999 494
309.8072342 -159.3392964 493
311.7435194 -159.016093 492
314.3082168 -159.016093 492
316.2288636 -158.6928895 491
319.4376117 -159.016093 492
322.6567853 -159.3392964 493
326.5460736 -159.9857033 495
331.7860168 -161.2785171 499
182.0472675 -157.4053675 495
184.6276033 -157.4053675 495
186.8297413 -157.0873768 494
189.4048643 -157.0873768 494
191.5913639 -156.7693862 493
193.7674378 -156.4513956 492
195.9330862 -156.1334049 491
198.088309 -155.8154143 490
200.2331061 -155.4974236 489
202.3674777 -155.179433 488
204.4914237 -154.8614423 487
205.754718 -153.9074704 484
207.8473871 -153.5894798 483
209.9296307 -153.2714891 482
212.0014487 -152.9534985 481
214.0628411 -152.6355079 480
216.5649849 -152.6355079 480
218.6107389 -152.3175172 479
221.1076699 -152.3175172 479
223.6046009 -152.3175172 479
226.101532 -152.3175172 479
228.598463 -152.3175172 479
231.095394 -152.3175172 479
233.1046584 -151.9995266 478
235.5963766 -151.9995266 478
237.5900026 -151.6815359 477
239.573203 -151.3635453 476
242.0544956 -151.3635453 476
244.0220576 -151.0455546 475
246.4981374 -151.0455546 475
248.9742173 -151.0455546 475
252.3384472 -147.229667 463
255.852414 -147.8656482 465
258.8317988 -148.1836389 466
262.3822552 -148.8196202 468
268.7828559 -151.0455546 475
271.8300072 -151.3635453 476
276.6164368 -152.6355079 480
286.901113 -155.4974236 489
294.9849083 -157.0873768 494
298.1623796 -157.4053675 495
300.7427154 -157.4053675 495
303.935825 -157.7233581 496
305.903387 -157.4053675 495
307.8605234 -157.0873768 494
309.178822 -156.4513956 492
311.1098943 -156.1334049 491
316.2288636 -156.1334049 491
321.3478328 -156.1334049 491
325.8863846 -157.0873768 494
179.8294911 -155.1378095 496
182.4150397 -155.1378095 496
184.6276033 -154.8250317 495
187.2079391 -154.8250317 495
189.788275 -154.8250317 495
191.9799873 -154.5122538 494
194.5551103 -154.5122538 494
196.3321353 -153.8866981 492
198.4925708 -153.5739203 491
200.6425808 -153.2611424 490
202.7821652 -152.9483646 489
204.4914237 -152.3228089 487
206.179831 -151.6972532 485
208.277713 -151.3844754 484
210.3651694 -151.0716976 483
212.4422001 -150.7589197 482
214.0628411 -150.133364 480
216.5649849 -150.133364 480
218.6107389 -149.8205862 479
221.1076699 -149.8205862 479
223.6046009 -149.8205862 479
226.101532 -149.8205862 479
228.598463 -149.8205862 479
231.095394 -149.8205862 479
233.1046584 -149.5078083 478
235.1034972 -149.1950305 477
237.0919104 -148.8822527 476
239.573203 -148.8822527 476
241.5459778 -148.5694748 475
243.5083269 -148.256697 474
245.4602505 -147.9439191 473
247.9259048 -147.9439191 473
251.2484323 -144.190585 461
254.2017532 -144.5033629 462
257.1654997 -144.8161407 463
260.7003176 -145.4416964 465
269.5457214 -147.6311413 472
274.3112998 -148.8822527 476
281.4445688 -151.3844754 484
285.1409835 -152.0100311 486
297.5600313 -154.5122538 494
300.7427154 -154.8250317 495
303.935825 -155.1378095 496
305.903387 -154.8250317 495
307.8605234 -154.5122538 494
308.5504097 -153.5739203 491
311.1098943 -153.5739203 491
315.5848129 -153.2611424 490
320.6933566 -153.2611424 490
323.9073175 -153.5739203 491
186.1195435 -153.474956 499
188.3425327 -153.167391 498
190.5550963 -152.8598259 497
193.1458577 -152.8598259 497
195.3427829 -152.5522609 496
197.1302334 -151.9371308 494
199.3010945 -151.6295657 493
201.4615301 -151.3220007 492
203.1968526 -150.7068706 490
204.9113239 -150.0917405 488
207.0300571 -149.7841755 487
208.7080388 -149.1690454 485
210.800708 -148.8614804 484
212.8829516 -148.5539153 483
214.5088053 -147.9387852 481
216.5649849 -147.6312202 480
219.0671287 -147.6312202 480
221.5692725 -147.6312202 480
223.6046009 -147.3236552 479
226.101532 -147.3236552 479
228.598463 -147.3236552 479
231.095394 -147.3236552 479
233.1046584 -147.0160901 478
235.1034972 -146.7085251 477
237.0919104 -146.40096 476
239.573203 -146.40096 476
241.5459778 -146.093395 475
242.9945963 -145.4782649 473
244.9413071 -145.1706999 472
247.4017485 -145.1706999 472
248.2740828 -144.2480047 469
249.1151403 -143.3253096 466
250.4647156 -142.7101795 464
251.2484323 -141.7874844 461
253.651533 -141.7874844 461
256.6100667 -142.0950494 462
260.1396718 -142.7101795 464
264.8218454 -143.9404397 468
268.97465 -144.8631348 471
273.7350156 -146.093395 475
279.7000777 -147.9387852 481
283.9675638 -148.8614804 484
287.6744041 -149.4766104 486
293.7906374 -151.3220007 492
296.9576831 -151.6295657 493
300.7427154 -152.2446958 495
303.935825 -152.5522609 496
305.903387 -152.2446958 495
307.8605234 -151.9371308 494
309.178822 -151.3220007 492
311.1098943 -151.0144357 491
313.0305411 -150.7068706 490
315.5848129 -150.7068706 490
320.0388804 -150.3993056 489
189.0989284 -151.1761212 500
191.3219176 -150.873769 499
193.5344811 -150.5714167 498
195.7366191 -150.2690645 497
197.5292824 -149.66436 495
199.7053564 -149.3620078 494
201.8710048 -149.0596555 493
203.6115401 -148.454951 491
204.9113239 -147.5478943 488
207.0300571 -147.2455421 487
209.1383647 -146.9431898 486
211.2362467 -146.6408376 485
212.8829516 -146.0361331 483
214.5088053 -145.4314286 481
217.0161619 -145.4314286 481
219.5235186 -145.4314286 481
222.0308752 -145.4314286 481
224.0714164 -145.1290764 480
226.5735602 -145.1290764 480
229.075704 -145.1290764 480
231.095394 -144.8267241 479
233.592325 -144.8267241 479
235.5963766 -144.5243719 478
237.0919104 -143.9196674 476
239.573203 -143.9196674 476
241.5459778 -143.6173152 475
242.9945963 -143.0126107 473
244.9413071 -142.7102584 472
246.8775923 -142.4079062 471
248.2740828 -141.8032017 469
249.1151403 -140.896145 466
250.4647156 -140.2914405 464
253.651533 -139.3843838 461
256.6100667 -139.686736 462
260.1396718 -140.2914405 464
264.2559868 -141.1984972 467
268.97465 -142.4079062 471
272.5824471 -143.0126107 473
279.1185806 -145.1290764 480
282.2074343 -145.4314286 481
286.4905588 -146.3384853 484
292.5963665 -148.1525988 490
296.3553348 -148.7573033 492
300.1351543 -149.3620078 494
304.5485989 -150.2690645 497
306.5213737 -149.9667122 496
307.8605234 -149.3620078 494
309.8072342 -149.0596555 493
311.1098943 -148.454951 491
313.669379 -148.454951 491
315.5848129 -148.1525988 490
317.4898213 -147.8502465 489
319.3844041 -147.5478943 488
189.4771263 -148.8668608 501
191.7053282 -148.5697214 500
193.9231046 -148.272582 499
196.1304554 -147.9754425 498
197.9283315 -147.3811636 496
200.1096183 -147.0840242 495
201.8710048 -146.4897453 493
204.0262275 -146.1926059 492
205.3312242 -145.3011875 489
207.4551702 -145.0040481 488
209.1383647 -144.4097692 486
211.2362467 -144.1126298 485
213.323703 -143.8154903 484
214.9547696 -143.2212114 482
217.467339 -143.2212114 482
219.9799084 -143.2212114 482
222.0308752 -142.924072 481
224.5382318 -142.924072 481
227.0455885 -142.924072 481
229.5529451 -142.924072 481
232.0603017 -142.924072 481
234.0799917 -142.6269325 480
235.5963766 -142.0326537 478
237.5900026 -141.7355142 477
239.573203 -141.4383748 476
241.5459778 -141.1412353 475
242.9945963 -140.5469564 473
244.4223636 -139.9526776 471
246.8775923 -139.9526776 471
248.2740828 -139.3583987 469
249.6497222 -138.7641198 467
251.0045103 -138.1698409 465
251.7934398 -137.2784226 462
254.2017532 -137.2784226 462
257.1654997 -137.575562 463
260.7003176 -138.1698409 465
264.2559868 -138.7641198 467
268.97465 -139.9526776 471
272.0061628 -140.249817 472
277.9555865 -142.0326537 478
281.6207244 -142.6269325 480
285.3067136 -143.2212114 482
291.9992311 -145.3011875 489
295.7529866 -145.8954664 491
299.5275933 -146.4897453 493
303.935825 -147.3811636 496
306.5213737 -147.3811636 496
308.4837228 -147.0840242 495
310.4356464 -146.7868847 494
312.3771444 -146.4897453 493
313.669379 -145.8954664 491
315.5848129 -145.598327 490
317.4898213 -145.3011875 489
184.9894455 -146.8391015 503
187.6114838 -146.8391015 503
189.4771263 -146.2552482 501
192.0887389 -146.2552482 501
194.3117281 -145.9633216 500
196.5242916 -145.6713949 499
198.3273805 -145.0875416 497
200.5138801 -144.795615 496
202.2804794 -144.2117617 494
204.440915 -143.9198351 493
205.7511245 -143.0440551 490
207.4551702 -142.4602019 488
209.5686905 -142.1682752 487
211.6717853 -141.8763486 486
213.323703 -141.2924953 484
215.4007338 -141.0005686 483
218.3696931 -141.2924953 484
220.8926881 -141.2924953 484
223.4156831 -141.2924953 484
225.9386782 -141.2924953 484
228.4616732 -141.2924953 484
230.5074272 -141.0005686 483
233.0252094 -141.0005686 483
234.5676583 -140.4167154 481
236.0892561 -139.8328621 479
238.0880949 -139.5409354 478
240.076508 -139.2490088 477
242.0544956 -138.9570821 476
242.9945963 -138.0813022 473
244.9413071 -137.7893756 472
246.8775923 -137.4974489 471
250.184304 -136.621669 468
251.5443049 -136.0378157 466
253.4284621 -135.7458891 465
262.3822552 -136.621669 468
265.387704 -136.9135956 469
268.97465 -137.4974489 471
272.5824471 -138.0813022 473
277.3740895 -139.2490088 477
281.0340146 -139.8328621 479
284.7147909 -140.4167154 481
290.8049602 -142.1682752 487
294.5482901 -142.7521285 489
298.3124712 -143.3359818 491
303.935825 -144.795615 496
305.903387 -144.5036884 495
308.4837228 -144.5036884 495
309.8072342 -143.9198351 493
311.7435194 -143.6279084 492
314.3082168 -143.6279084 492
316.2288636 -143.3359818 491
318.1390848 -143.0440551 490
185.3572178 -144.5037771 504
187.6114838 -144.2170633 503
190.233522 -144.2170633 503
192.4721496 -143.9303494 502
194.7003515 -143.6436356 501
196.9181279 -143.3569218 500
199.1254786 -143.0702079 499
201.3224038 -142.7834941 498
203.0994287 -142.2100664 496
205.2702899 -141.9233525 495
206.1710247 -140.7764972 491
208.3053963 -140.4897833 490
210.4293422 -140.2030695 489
212.107324 -139.6296418 487
214.2052059 -139.3429279 486
216.2926623 -139.0562141 485
218.8208701 -139.0562141 485
221.349078 -139.0562141 485
223.8772858 -139.0562141 485
226.4054936 -139.0562141 485
228.9337015 -139.0562141 485
230.9846682 -138.7695003 484
233.5076633 -138.7695003 484
235.055325 -138.1960726 482
236.5821355 -137.6226449 480
238.5861871 -137.335931 479
240.5798131 -137.0492172 478
242.0544956 -136.4757895 476
242.9945963 -135.615648 473
244.9413071 -135.3289341 472
246.8775923 -135.0422203 471
250.7188858 -134.4687926 469
252.0840996 -133.8953649 467
254.518477 -133.8953649 467
256.9528545 -133.8953649 467
259.9426649 -134.1820788 468
262.942901 -134.4687926 469
265.9535627 -134.7555064 470
269.5457214 -135.3289341 472
272.5824471 -135.615648 473
280.4473048 -137.0492172 478
284.1228683 -137.6226449 480
287.819283 -138.1960726 482
293.3435936 -139.6296418 487
297.0973491 -140.2030695 489
302.0975035 -141.3499248 493
305.903387 -141.9233525 495
307.8605234 -141.6366387 494
310.4356464 -141.6366387 494
312.3771444 -141.3499248 493
314.3082168 -141.063211 492
316.2288636 -140.7764972 491
318.1390848 -140.4897833 490
187.9844688 -141.8765261 504
190.6117198 -141.8765261 504
192.8555602 -141.5950251 503
195.088975 -141.313524 502
197.3119641 -141.032023 501
199.5245277 -140.7505219 500
201.7266657 -140.4690209 499
203.5089034 -139.9060188 497
205.2702899 -139.3430167 495
206.590925 -138.4985136 492
208.7305093 -138.2170125 491
210.8596681 -137.9355115 490
212.9784013 -137.6540104 489
214.6459574 -137.0910084 487
216.7386266 -136.8095073 486
219.2720472 -136.8095073 486
221.8054678 -136.8095073 486
224.3388885 -136.8095073 486
226.8723091 -136.8095073 486
229.4057297 -136.8095073 486
231.9391503 -136.8095073 486
233.9901171 -136.5280063 485
235.5429916 -135.9650042 483
237.075015 -135.4020021 481
239.0842793 -135.1205011 480
241.0831181 -134.839 479
242.5630135 -134.2759979 477
244.0220576 -133.7129958 475
245.4602505 -133.1499937 473
247.4017485 -132.8684927 472
250.7188858 -132.0239896 469
252.6238942 -131.7424885 468
255.0634845 -131.7424885 468
257.5030747 -131.7424885 468
264.0641927 -132.5869917 471
269.5457214 -132.8684927 472
272.5824471 -133.1499937 473
282.3471003 -134.2759979 477
286.0278767 -134.839 479
292.1388971 -136.5280063 485
294.667105 -136.5280063 485
299.6464082 -137.6540104 489
304.0494271 -138.4985136 492
305.9909251 -138.2170125 491
307.9219975 -137.9355115 490
311.1098943 -138.2170125 491
318.7883482 -138.2170125 491
188.3574539 -139.5255633 505
190.6117198 -139.2492751 504
193.2389709 -139.2492751 504
195.4775984 -138.9729868 503
197.7058004 -138.6966986 502
199.9235768 -138.4204104 501
202.1309275 -138.1441221 500
203.918378 -137.5915456 498
206.0996648 -137.3152574 497
207.0108252 -136.2101044 493
209.1556224 -135.9338162 492
211.289994 -135.6575279 491
213.4139399 -135.3812397 490
215.5274603 -135.1049514 489
217.6305551 -134.8286632 488
220.1744013 -134.8286632 488
222.7182475 -134.8286632 488
225.2620938 -134.8286632 488
227.3391245 -134.5523749 487
229.877758 -134.5523749 487
232.4163914 -134.5523749 487
234.472571 -134.2760867 486
236.0306583 -133.7235102 484
237.5678944 -133.1709337 482
239.5823716 -132.8946455 481
241.5864232 -132.6183572 480
243.0715313 -132.0657807 478
244.5357882 -131.5132042 476
246.4981374 -131.236916 475
247.9259048 -130.6843395 473
249.86219 -130.4080513 472
251.2534677 -129.8554748 470
253.1636889 -129.5791865 469
255.6084919 -129.5791865 469
258.0532949 -129.5791865 469
263.5035469 -129.8554748 470
266.5194213 -130.131763 471
269.5457214 -130.4080513 472
272.0061628 -130.4080513 472
275.6295984 -130.9606278 474
278.6871752 -131.236916 475
281.7551777 -131.5132042 476
285.4307412 -132.0657807 478
292.8444218 -133.1709337 482
297.1953128 -133.9997984 485
302.1954672 -135.1049514 489
304.7445262 -135.1049514 489
306.665173 -134.8286632 488
309.8426443 -135.1049514 489
188.3574539 -136.8930995 505
191.3681156 -137.164175 506
193.6223815 -136.8930995 505
196.2548453 -136.8930995 505
198.0996366 -136.3509486 503
200.7216749 -136.3509486 503
202.5351894 -135.8087977 501
204.7373273 -135.5377223 500
206.5143523 -134.9955714 498
207.4307255 -133.9112696 494
209.5807354 -133.6401942 493
211.7203198 -133.3691187 492
213.8494786 -133.0980433 491
215.9682118 -132.8269678 490
218.0765193 -132.5558924 489
220.6255784 -132.5558924 489
224.0874171 -133.0980433 491
226.1852991 -132.8269678 490
228.7395709 -132.8269678 490
230.8218145 -132.5558924 489
233.3708735 -132.5558924 489
235.4374787 -132.2848169 488
237.0059916 -131.7426661 486
238.5536533 -131.2005152 484
240.5785561 -130.9294397 483
242.5930333 -130.6583643 482
244.088567 -130.1162134 480
245.5632495 -129.5740625 478
247.5360243 -129.3029871 477
248.9742173 -128.7608362 475
250.391559 -128.2186853 473
252.3226314 -127.9476098 472
253.7034835 -127.4054589 470
255.6084919 -127.1343835 469
258.6035152 -127.4054589 470
262.942901 -127.1343835 469
265.9535627 -127.4054589 470
275.0481013 -128.2186853 473
278.1004654 -128.4897607 474
281.1632551 -128.7608362 475
284.2364703 -129.0319116 476
297.8080866 -131.7426661 486
300.3415073 -131.7426661 486
302.2517284 -131.4715906 485
305.4083485 -131.7426661 486
313.0305411 -132.8269678 490
191.7463134 -134.792361 507
194.3892028 -134.792361 507
197.0320923 -134.792361 507
199.2811454 -134.5264983 506
201.519773 -134.2606357 505
204.1522368 -134.2606357 505
205.9657513 -133.7289104 503
207.7584146 -133.1971851 501
209.1103265 -132.3995972 498
211.2811877 -132.1337345 497
213.4416232 -131.8678719 496
215.5916332 -131.6020092 495
217.2904661 -131.0702839 493
219.8603763 -131.0702839 493
221.9791095 -130.8044213 492
224.0874171 -130.5385587 491
226.6469017 -130.5385587 491
228.7395709 -130.272696 490
230.8218145 -130.0068334 489
233.3708735 -130.0068334 489
235.4374787 -129.7409707 488
237.0059916 -129.2092454 486
239.0465328 -128.9433828 485
241.0766483 -128.6775201 484
242.5930333 -128.1457949 482
244.5970849 -127.8799322 481
246.0769802 -127.3482069 479
248.0549678 -127.0823443 478
249.4983735 -126.550619 476
250.391559 -125.753031 473
252.3226314 -125.4871684 472
254.2432782 -125.2213058 471
256.1534994 -124.9554431 470
258.6035152 -124.9554431 470
260.498098 -124.6895805 469
262.942901 -124.6895805 469
275.0481013 -125.753031 473
277.5137555 -125.753031 473
281.1632551 -126.2847563 475
283.6393349 -126.2847563 475
297.8695607 -128.1457949 482
301.0053296 -128.4116575 483
303.5231118 -128.4116575 483
308.5753942 -129.4751081 487
192.5027091 -132.6707712 509
195.1560241 -132.6707712 509
197.4207157 -132.4101214 508
199.6749817 -132.1494716 507
202.3178711 -132.1494716 507
204.5564987 -131.8888217 506
206.375226 -131.367522 504
208.5877895 -131.1068722 503
209.950127 -130.3249226 500
212.1314138 -130.0642728 499
213.8719491 -129.5429731 497
216.0271718 -129.2823233 496
217.7312176 -128.7610236 494
219.8603763 -128.5003737 493
222.4302866 -128.5003737 493
224.5438069 -128.2397239 492
227.1085044 -128.2397239 492
229.2063863 -127.979074 491
230.8218145 -127.4577743 489
233.3708735 -127.4577743 489
235.4374787 -127.1971245 488
237.0059916 -126.6758248 486
239.0465328 -126.415175 485
241.0766483 -126.1545251 484
243.0963383 -125.8938753 483
245.1056027 -125.6332254 482
246.5907108 -125.1119257 480
248.5739112 -124.8512759 479
250.0225298 -124.3299762 477
251.4502971 -123.8086765 475
252.8572132 -123.2873768 473
254.2432782 -122.7660771 471
256.1534994 -122.5054273 470
258.6035152 -122.5054273 470
262.942901 -122.2447774 469
275.0481013 -123.2873768 473
277.5137555 -123.2873768 473
280.5713324 -123.5480267 474
283.0421994 -123.5480267 474
285.5130665 -123.5480267 474
288.5914946 -123.8086765 475
292.2931221 -124.3299762 477
295.3976141 -124.590626 478
297.8893324 -124.590626 478
301.0094628 -124.8512759 479
422.7916497 -168.3798001 646
195.9228455 -130.5283303 511
198.5865861 -130.5283303 511
200.8564904 -130.2728933 510
202.7169201 -129.7620192 508
205.3650224 -129.7620192 508
207.1941753 -129.2511451 506
208.5877895 -128.484834 503
210.3700272 -127.9739599 501
212.1314138 -127.4630858 499
214.3022749 -127.2076487 498
216.4627105 -126.9522117 497
218.171969 -126.4413376 495
220.3063406 -126.1859005 494
222.4302866 -125.9304635 493
224.5438069 -125.6750265 492
226.6469017 -125.4195894 491
228.7395709 -125.1641524 490
231.2938427 -125.1641524 490
233.3708735 -124.9087153 489
235.4374787 -124.6532783 488
237.0059916 -124.1424042 486
239.0465328 -123.8869671 485
241.0766483 -123.6315301 484
243.0963383 -123.376093 483
245.1056027 -123.120656 482
247.1044415 -122.865219 481
248.5739112 -122.3543449 479
250.546686 -122.0989078 478
251.9796661 -121.5880337 476
253.3917951 -121.0771596 474
254.7830728 -120.5662855 472
256.6985068 -120.3108485 471
259.1537354 -120.3108485 471
263.5035469 -120.0554114 470
275.6295984 -121.0771596 474
278.1004654 -121.0771596 474
280.5713324 -121.0771596 474
282.445064 -120.8217226 473
287.9839335 -121.0771596 474
291.0675744 -121.3325967 475
293.5436542 -121.3325967 475
296.6429335 -121.5880337 476
190.8738017 -129.8663837 519
197.4564881 -128.8654867 515
199.363833 -128.3650382 513
201.644163 -128.1148139 512
203.9140673 -127.8645897 511
206.1735461 -127.6143655 510
208.0131246 -127.113917 508
209.002477 -126.11302 504
210.7899275 -125.6125715 502
212.5565268 -125.112123 500
214.3022749 -124.6116745 498
216.4627105 -124.3614503 497
217.7312176 -123.6107775 494
219.8603763 -123.3605533 493
222.4302866 -123.3605533 493
224.5438069 -123.110329 492
226.6469017 -122.8601048 491
228.7395709 -122.6098805 490
230.8218145 -122.3596563 489
232.8936324 -122.109432 488
234.9550248 -121.8592078 487
237.0059916 -121.6089836 486
239.5394122 -121.6089836 486
241.0766483 -121.1085351 484
243.5996434 -121.1085351 484
245.6141205 -120.8583108 483
247.6181721 -120.6080866 482
249.6117981 -120.3578623 481
251.0708422 -119.8574138 479
253.0384042 -119.6071896 478
254.4609588 -119.1067411 476
256.4024568 -118.8565168 475
257.7885217 -118.3560684 473
260.2541759 -118.3560684 473
265.1854844 -118.3560684 473
273.7350156 -118.8565168 475
276.2110954 -118.8565168 475
278.6871752 -118.8565168 475
283.6393349 -118.8565168 475
284.9107182 -118.3560684 473
287.9839335 -118.6062926 474
291.0675744 -118.8565168 475
293.5436542 -118.8565168 475
296.019734 -118.8565168 475
301.6055187 -119.1067411 476
304.7256492 -119.3569653 477
191.9771184 -127.895975 522
194.3252148 -127.6509635 521
197.0410834 -127.6509635 521
199.756952 -127.6509635 521
201.3069503 -126.9159292 518
203.219508 -126.4259063 516
205.1112145 -125.9358834 514
207.3863316 -125.690872 513
209.2415485 -125.2008491 511
209.8318519 -123.9757919 506
211.2098278 -123.2407575 503
212.9816399 -122.7507346 501
214.3022749 -122.0157003 498
216.4627105 -121.7706888 497
217.7312176 -121.0356545 494
219.8603763 -120.7906431 493
221.9791095 -120.5456316 492
224.0874171 -120.3006202 491
226.6469017 -120.3006202 491
228.2727554 -119.8105973 489
230.8218145 -119.8105973 489
232.4163914 -119.3205744 487
234.9550248 -119.3205744 487
237.0059916 -119.0755629 486
239.0465328 -118.8305515 485
241.0766483 -118.58554 484
243.5996434 -118.58554 484
246.1226384 -118.58554 484
247.6181721 -118.0955171 482
250.1307416 -118.0955171 482
251.5949985 -117.6054942 480
253.5677733 -117.3604828 479
254.9955406 -116.8704599 477
256.9422514 -116.6254485 476
258.3335291 -116.1354256 474
265.7461302 -116.1354256 474
273.7350156 -116.380437 475
276.7925924 -116.6254485 476
281.7551777 -116.6254485 476
284.2364703 -116.6254485 476
286.1154147 -116.380437 475
291.6803482 -116.6254485 476
294.1616409 -116.6254485 476
300.9718937 -116.380437 475
190.3437154 -125.8942895 525
192.712663 -125.6544909 524
195.0711849 -125.4146922 523
197.4192813 -125.1748936 522
200.1403627 -125.1748936 522
201.6955737 -124.4554976 519
204.0071805 -124.215699 518
205.9093126 -123.7361017 516
207.7905935 -123.2565044 514
209.6510232 -122.7769071 512
210.2465393 -121.5779139 507
211.629728 -120.8585179 504
212.9816399 -120.139122 501
214.7326008 -119.6595247 499
216.4627105 -119.1799274 497
217.2904661 -118.2207328 493
219.4144121 -117.9809342 492
221.5279325 -117.7411355 491
223.6310272 -117.5013369 490
226.1852991 -117.5013369 490
227.80594 -117.0217396 488
229.877758 -116.7819409 487
232.4163914 -116.7819409 487
234.9550248 -116.7819409 487
237.0059916 -116.5421423 486
239.0465328 -116.3023437 485
241.0766483 -116.062545 484
243.5996434 -116.062545 484
246.1226384 -116.062545 484
248.1319028 -115.8227464 483
250.1307416 -115.5829477 482
252.1191547 -115.3431491 481
254.0971423 -115.1033504 480
256.0647043 -114.8635518 479
257.482046 -114.3839545 477
259.423544 -114.1441558 476
264.3861293 -114.1441558 476
266.8674219 -114.1441558 476
271.8300072 -114.1441558 476
274.3112998 -114.1441558 476
277.3740895 -114.3839545 477
282.3471003 -114.3839545 477
284.2364703 -114.1441558 476
286.717763 -114.1441558 476
289.1990556 -114.1441558 476
291.6803482 -114.1441558 476
294.1616409 -114.1441558 476
296.6429335 -114.1441558 476
299.7526384 -114.3839545 477
301.6055187 -114.1441558 476
193.0804352 -123.1575697 525
195.44417 -122.9229839 524
198.175677 -122.9229839 524
200.5237733 -122.688398 523
202.4728206 -122.2192263 521
204.4010167 -121.7500546 519
206.3083616 -121.2808829 517
208.1948554 -120.8117112 515
209.6510232 -120.1079537 512
210.6612268 -119.1696103 508
212.0496283 -118.4658528 505
213.4067529 -117.7620952 502
214.7326008 -117.0583377 499
216.4627105 -116.589166 497
217.2904661 -115.6508226 493
219.4144121 -115.4162368 492
221.5279325 -115.1816509 491
223.6310272 -114.9470651 490
225.2620938 -114.4778934 488
227.3391245 -114.2433075 487
229.4057297 -114.0087217 486
231.9391503 -114.0087217 486
234.472571 -114.0087217 486
236.5183249 -113.7741358 485
239.0465328 -113.7741358 485
241.0766483 -113.53955 484
243.5996434 -113.53955 484
246.1226384 -113.53955 484
248.6456334 -113.53955 484
250.649685 -113.3049641 483
252.643311 -113.0703783 482
254.6265114 -112.8357924 481
256.0647043 -112.3666207 479
258.0218407 -112.1320349 478
259.9685515 -111.897449 477
264.3861293 -111.6628632 476
267.4280678 -111.897449 477
270.4804318 -112.1320349 478
272.9721501 -112.1320349 478
274.8875841 -111.897449 477
277.9555865 -112.1320349 478
280.4473048 -112.1320349 478
282.939023 -112.1320349 478
285.4307412 -112.1320349 478
287.3201112 -111.897449 477
289.8066166 -111.897449 477
295.3976141 -112.1320349 478
297.8893324 -112.1320349 478
300.3810506 -112.1320349 478
190.7062749 -120.6502229 526
193.0804352 -120.4208499 525
195.817155 -120.4208499 525
198.175677 -120.1914768 524
200.907184 -120.1914768 524
202.4728206 -119.5033577 521
204.794853 -119.2739847 520
206.7074107 -118.8152386 518
208.1948554 -118.1271194 515
209.6510232 -117.4390003 512
210.6612268 -116.5215081 508
211.629728 -115.6040159 504
213.4067529 -115.1452698 502
214.7326008 -114.4571507 499
216.4627105 -113.9984046 497
217.2904661 -113.0809124 493
218.9684478 -112.6221663 491
220.6255784 -112.1634202 489
222.7182475 -111.9340471 488
225.2620938 -111.9340471 488
227.3391245 -111.7046741 487
229.4057297 -111.475301 486
231.9391503 -111.475301 486
234.472571 -111.475301 486
236.5183249 -111.245928 485
239.0465328 -111.245928 485
241.5747406 -111.245928 485
244.1029484 -111.245928 485
246.6311562 -111.245928 485
249.1593641 -111.245928 485
251.1686285 -111.0165549 484
253.1674672 -110.7871819 483
255.6852495 -110.7871819 483
257.6684498 -110.5578089 482
259.6412246 -110.3284358 481
261.0585664 -109.8696897 479
266.0524284 -109.8696897 479
268.5493595 -109.8696897 479
271.0462905 -109.8696897 479
273.5432215 -109.8696897 479
278.5370836 -109.8696897 479
281.0340146 -109.8696897 479
282.939023 -109.6403167 478
285.4307412 -109.6403167 478
290.4141777 -109.6403167 478
293.5186697 -109.8696897 479
296.0156008 -109.8696897 479
298.5125318 -109.8696897 479
190.7062749 -117.9082903 526
193.4482075 -117.9082903 526
196.1901401 -117.9082903 526
198.5538748 -117.6841301 525
201.2905946 -117.6841301 525
202.4728206 -116.7874891 521
204.794853 -116.5633288 520
206.7074107 -116.1150083 518
208.1948554 -115.4425276 515
209.6510232 -114.7700469 512
210.6612268 -113.8734059 508
212.0496283 -113.2009251 505
213.4067529 -112.5284444 502
221.0767554 -109.8385214 490
223.1746374 -109.6143612 489
225.7236964 -109.6143612 489
227.3391245 -109.1660407 487
229.877758 -109.1660407 487
231.9391503 -108.9418804 486
234.472571 -108.9418804 486
237.0059916 -108.9418804 486
239.5394122 -108.9418804 486
242.0728328 -108.9418804 486
244.6062535 -108.9418804 486
247.1396741 -108.9418804 486
249.6730947 -108.9418804 486
251.6875719 -108.7177202 485
253.6916235 -108.4935599 484
256.2146185 -108.4935599 484
257.6684498 -108.0452394 482
259.6412246 -107.8210792 481
262.1485813 -107.8210792 481
266.0524284 -107.3727587 479
269.1100053 -107.5969189 480
273.5432215 -107.3727587 479
276.0401525 -107.3727587 479
279.1185806 -107.5969189 480
281.6207244 -107.5969189 480
284.1228683 -107.5969189 480
286.0278767 -107.3727587 479
288.5248077 -107.3727587 479
291.0217387 -107.3727587 479
294.1314436 -107.5969189 480
296.6335874 -107.5969189 480
299.1357312 -107.5969189 480
301.0094628 -107.3727587 479
303.5063939 -107.3727587 479
190.7062749 -115.1663577 526
193.4482075 -115.1663577 526
195.817155 -114.9474103 525
198.5538748 -114.9474103 525
