# .PCD v0.7 - Point Cloud Data file format
VERSION 0.7
FIELDS x y z rgb
SIZE 4 4 4 4
TYPE F F F F
COUNT 1 1 1 1
WIDTH 1044
HEIGHT 1
VIEWPOINT 0 0 0 1 0 0 0
POINTS 1044
DATA ascii
-223.1544367 -55.51066434 484 9.376833516e-39
-221.5431419 -55.74004725 486 9.376833516e-39
-219.4603586 -55.85473871 487 9.376833516e-39
-216.9217251 -55.85473871 487 9.376833516e-39
-215.2635151 -56.08412162 489 9.376833516e-39
-213.5844538 -56.31350453 491 9.376833516e-39
-211.0249692 -56.31350453 491 9.376833516e-39
-208.4654846 -56.31350453 491 9.376833516e-39
-205.9059999 -56.31350453 491 9.376833516e-39
-203.3465153 -56.31350453 491 9.376833516e-39
-200.7870307 -56.31350453 491 9.376833516e-39
-197.823824 -56.19881307 490 9.376833516e-39
-194.8710429 -56.08412162 489 9.376833516e-39
-192.3219838 -56.08412162 489 9.376833516e-39
-189.7729248 -56.08412162 489 9.376833516e-39
-186.458124 -55.85473871 487 9.376833516e-39
-183.9194906 -55.85473871 487 9.376833516e-39
-181.0084119 -55.74004725 486 9.376833516e-39
-178.4749912 -55.74004725 486 9.376833516e-39
-175.5795509 -55.6253558 485 9.376833516e-39
-172.6945362 -55.51066434 484 9.376833516e-39
-170.1715412 -55.51066434 484 9.376833516e-39
-167.6485461 -55.51066434 484 9.376833516e-39
-165.1255511 -55.51066434 484 9.376833516e-39
-162.6025561 -55.51066434 484 9.376833516e-39
-160.7410468 -55.74004725 486 9.376833516e-39
-158.2076262 -55.74004725 486 9.376833516e-39
-155.6742056 -55.74004725 486 9.376833516e-39
-153.4558895 -55.85473871 487 9.376833516e-39
-150.917256 -55.85473871 487 9.376833516e-39
-148.3786226 -55.85473871 487 9.376833516e-39
-145.8399892 -55.85473871 487 9.376833516e-39
-143.595609 -55.96943016 488 9.376833516e-39
-141.3408033 -56.08412162 489 9.376833516e-39
-139.075572 -56.19881307 490 9.376833516e-39
-136.7999151 -56.31350453 491 9.376833516e-39
-134.7872346 -56.54288744 493 9.376833516e-39
-133.0218923 -56.8869618 496 9.376833516e-39
-130.6993202 -57.00165326 497 9.376833516e-39
-129.1396136 -57.46041908 501 9.376833516e-39
-126.5280009 -57.46041908 501 9.376833516e-39
-118.9300756 -57.57511054 502 9.376833516e-39
-113.2434509 -57.34572763 500 9.376833516e-39
-110.1945029 -57.11634472 498 9.376833516e-39
-107.3824674 -57.00165326 497 9.376833516e-39
-104.791706 -57.00165326 497 9.376833516e-39
-101.9953088 -56.8869618 496 9.376833516e-39
-99.2093373 -56.77227035 495 9.376833516e-39
-96.62900148 -56.77227035 495 9.376833516e-39
-94.04866566 -56.77227035 495 9.376833516e-39
-91.46832983 -56.77227035 495 9.376833516e-39
-88.88799401 -56.77227035 495 9.376833516e-39
-86.30765818 -56.77227035 495 9.376833516e-39
-83.72732236 -56.77227035 495 9.376833516e-39
-81.14698654 -56.77227035 495 9.376833516e-39
-78.40793021 -56.65757889 494 9.376833516e-39
-75.83280718 -56.65757889 494 9.376833516e-39
-73.25768416 -56.65757889 494 9.376833516e-39
-70.68256113 -56.65757889 494 9.376833516e-39
-67.9695688 -56.54288744 493 9.376833516e-39
-65.39965858 -56.54288744 493 9.376833516e-39
-62.82974835 -56.54288744 493 9.376833516e-39
-60.38206904 -56.65757889 494 9.376833516e-39
-57.80694601 -56.65757889 494 9.376833516e-39
-55.3436283 -56.77227035 495 9.376833516e-39
-52.86988499 -56.8869618 496 9.376833516e-39
-50.38571607 -57.00165326 497 9.376833516e-39
-47.89112156 -57.11634472 498 9.376833516e-39
-45.38610145 -57.23103617 499 9.376833516e-39
-42.87065574 -57.34572763 500 9.376833516e-39
-40.34478443 -57.46041908 501 9.376833516e-39
-37.80848752 -57.57511054 502 9.376833516e-39
-35.26176501 -57.68980199 503 9.376833516e-39
-32.63972679 -57.68980199 503 9.376833516e-39
-30.01768857 -57.68980199 503 9.376833516e-39
-27.45011486 -57.80449345 504 9.376833516e-39
-24.87211555 -57.9191849 505 9.376833516e-39
-22.23965173 -57.9191849 505 9.376833516e-39
-19.60718791 -57.9191849 505 9.376833516e-39
-17.00833741 -58.03387636 506 9.376833516e-39
-14.37066079 -58.03387636 506 9.376833516e-39
-11.73298417 -58.03387636 506 9.376833516e-39
-9.09530755 -58.03387636 506 9.376833516e-39
-6.470393046 -58.14856781 507 9.376833516e-39
-3.835052944 -58.26325927 508 9.376833516e-39
-1.186950725 -58.26325927 508 9.376833516e-39
-366.5467023 -48.28008712 441 9.376833516e-39
-364.2478577 -48.28008712 441 9.376833516e-39
-362.7697591 -48.38956578 442 9.376833516e-39
-360.4657016 -48.38956578 442 9.376833516e-39
-358.1616442 -48.38956578 442 9.376833516e-39
-356.6626944 -48.49904443 443 9.376833516e-39
-355.9532139 -48.71800175 445 9.376833516e-39
-353.6335181 -48.71800175 445 9.376833516e-39
-352.8927607 -48.93695906 447 9.376833516e-39
-351.3468958 -49.04643771 448 9.376833516e-39
-350.5696489 -49.26539502 450 9.376833516e-39
-348.9977199 -49.37487368 451 9.376833516e-39
-348.1839834 -49.59383099 453 9.376833516e-39
-346.5859904 -49.70330965 454 9.376833516e-39
-344.9775718 -49.8127883 455 9.376833516e-39
-342.605748 -49.8127883 455 9.376833516e-39
-340.2339241 -49.8127883 455 9.376833516e-39
-338.6046544 -49.92226696 456 9.376833516e-39
-336.2276177 -49.92226696 456 9.376833516e-39
-334.5827096 -50.03174561 457 9.376833516e-39
-332.2004601 -50.03174561 457 9.376833516e-39
-330.5399136 -50.14122427 458 9.376833516e-39
-328.1524513 -50.14122427 458 9.376833516e-39
-326.4762664 -50.25070292 459 9.376833516e-39
-324.7896558 -50.36018158 460 9.376833516e-39
-322.391768 -50.36018158 460 9.376833516e-39
-320.689519 -50.46966024 461 9.376833516e-39
-318.2864183 -50.46966024 461 9.376833516e-39
-316.568531 -50.57913889 462 9.376833516e-39
-314.1602175 -50.57913889 462 9.376833516e-39
-312.4266918 -50.68861755 463 9.376833516e-39
-310.0131655 -50.68861755 463 9.376833516e-39
-307.5996393 -50.68861755 463 9.376833516e-39
-305.1861131 -50.68861755 463 9.376833516e-39
-302.7725868 -50.68861755 463 9.376833516e-39
-301.0077843 -50.7980962 464 9.376833516e-39
-299.2325561 -50.90757486 465 9.376833516e-39
-296.8086043 -50.90757486 465 9.376833516e-39
-295.0177377 -51.01705351 466 9.376833516e-39
-293.2164456 -51.12653217 467 9.376833516e-39
-291.4047278 -51.23601082 468 9.376833516e-39
-289.5825844 -51.34548948 469 9.376833516e-39
-287.7500155 -51.45496814 470 9.376833516e-39
-285.9070209 -51.56444679 471 9.376833516e-39
-284.6554093 -51.7834041 473 9.376833516e-39
-282.189755 -51.7834041 473 9.376833516e-39
-280.9068665 -52.00236141 475 9.376833516e-39
-279.0169568 -52.11184007 476 9.376833516e-39
-276.5356642 -52.11184007 476 9.376833516e-39
-274.630116 -52.22131872 477 9.376833516e-39
-272.7141423 -52.33079738 478 9.376833516e-39
-270.222424 -52.33079738 478 9.376833516e-39
-267.7307058 -52.33079738 478 9.376833516e-39
-265.7938808 -52.44027604 479 9.376833516e-39
-263.2969498 -52.44027604 479 9.376833516e-39
-260.8000188 -52.44027604 479 9.376833516e-39
-258.3030878 -52.44027604 479 9.376833516e-39
-256.3401988 -52.54975469 480 9.376833516e-39
-253.3092257 -52.44027604 479 9.376833516e-39
-250.8122947 -52.44027604 479 9.376833516e-39
-248.3153636 -52.44027604 479 9.376833516e-39
-245.8184326 -52.44027604 479 9.376833516e-39
-243.3215016 -52.44027604 479 9.376833516e-39
-240.8245706 -52.44027604 479 9.376833516e-39
-238.3276395 -52.44027604 479 9.376833516e-39
-236.3230482 -52.54975469 480 9.376833516e-39
-233.8209043 -52.54975469 480 9.376833516e-39
-231.8006746 -52.65923335 481 9.376833516e-39
-228.8166167 -52.54975469 480 9.376833516e-39
-226.7859613 -52.65923335 481 9.376833516e-39
-224.7448804 -52.768712 482 9.376833516e-39
-222.6933739 -52.87819066 483 9.376833516e-39
-221.0872918 -53.09714797 485 9.376833516e-39
-219.0097213 -53.20662663 486 9.376833516e-39
-216.9217251 -53.31610528 487 9.376833516e-39
-214.3830917 -53.31610528 487 9.376833516e-39
-212.714456 -53.53506259 489 9.376833516e-39
-210.5951831 -53.64454125 490 9.376833516e-39
-208.0409113 -53.64454125 490 9.376833516e-39
-203.3465153 -53.7540199 491 9.376833516e-39
-200.7870307 -53.7540199 491 9.376833516e-39
-197.823824 -53.64454125 490 9.376833516e-39
-194.4725336 -53.42558394 488 9.376833516e-39
-191.9286873 -53.42558394 488 9.376833516e-39
-188.9967574 -53.31610528 487 9.376833516e-39
-186.458124 -53.31610528 487 9.376833516e-39
-183.5418325 -53.20662663 486 9.376833516e-39
-180.6359666 -53.09714797 485 9.376833516e-39
-177.7405262 -52.98766931 484 9.376833516e-39
-175.2175312 -52.98766931 484 9.376833516e-39
-171.9809224 -52.768712 482 9.376833516e-39
-169.8199471 -52.87819066 483 9.376833516e-39
-167.3021648 -52.87819066 483 9.376833516e-39
-164.7843826 -52.87819066 483 9.376833516e-39
-162.6025561 -52.98766931 484 9.376833516e-39
-160.0795611 -52.98766931 484 9.376833516e-39
-157.8820961 -53.09714797 485 9.376833516e-39
-155.3538883 -53.09714797 485 9.376833516e-39
-152.8256805 -53.09714797 485 9.376833516e-39
-150.6073643 -53.20662663 486 9.376833516e-39
-148.0739437 -53.20662663 486 9.376833516e-39
-145.5405231 -53.20662663 486 9.376833516e-39
-143.0071025 -53.20662663 486 9.376833516e-39
-140.4736818 -53.20662663 486 9.376833516e-39
-138.2240889 -53.31610528 487 9.376833516e-39
-135.9640704 -53.42558394 488 9.376833516e-39
-134.2404304 -53.7540199 491 9.376833516e-39
-132.2173244 -53.97297721 493 9.376833516e-39
-130.1733672 -54.19193453 495 9.376833516e-39
-128.3663225 -54.52037049 498 9.376833516e-39
-126.0228991 -54.62984915 499 9.376833516e-39
-123.4217121 -54.62984915 499 9.376833516e-39
-120.8205251 -54.62984915 499 9.376833516e-39
-118.2193381 -54.62984915 499 9.376833516e-39
-115.6181511 -54.62984915 499 9.376833516e-39
-112.7904771 -54.52037049 498 9.376833516e-39
-109.9732288 -54.41089184 497 9.376833516e-39
-107.3824674 -54.41089184 497 9.376833516e-39
-104.791706 -54.41089184 497 9.376833516e-39
-101.9953088 -54.30141318 496 9.376833516e-39
-99.40976021 -54.30141318 496 9.376833516e-39
-96.82421158 -54.30141318 496 9.376833516e-39
-94.23866296 -54.30141318 496 9.376833516e-39
-91.65311434 -54.30141318 496 9.376833516e-39
-89.06756571 -54.30141318 496 9.376833516e-39
-86.48201709 -54.30141318 496 9.376833516e-39
-83.89646847 -54.30141318 496 9.376833516e-39
-81.31091984 -54.30141318 496 9.376833516e-39
-78.56665071 -54.19193453 495 9.376833516e-39
-75.98631489 -54.19193453 495 9.376833516e-39
-73.40597907 -54.19193453 495 9.376833516e-39
-70.82564324 -54.19193453 495 9.376833516e-39
-68.10743811 -54.08245587 494 9.376833516e-39
-65.66497159 -54.19193453 495 9.376833516e-39
-63.08463577 -54.19193453 495 9.376833516e-39
-60.50429995 -54.19193453 495 9.376833516e-39
-57.92396412 -54.19193453 495 9.376833516e-39
-55.45543361 -54.30141318 496 9.376833516e-39
-52.9764775 -54.41089184 497 9.376833516e-39
-50.48709578 -54.52037049 498 9.376833516e-39
-47.98728847 -54.62984915 499 9.376833516e-39
-45.47705556 -54.7393278 500 9.376833516e-39
-42.87065574 -54.7393278 500 9.376833516e-39
-40.34478443 -54.84880646 501 9.376833516e-39
-37.80848752 -54.95828511 502 9.376833516e-39
-35.26176501 -55.06776377 503 9.376833516e-39
-32.63972679 -55.06776377 503 9.376833516e-39
-30.07736588 -55.17724243 504 9.376833516e-39
-27.45011486 -55.17724243 504 9.376833516e-39
-24.87211555 -55.28672108 505 9.376833516e-39
-22.23965173 -55.28672108 505 9.376833516e-39
-19.60718791 -55.28672108 505 9.376833516e-39
-17.00833741 -55.39619974 506 9.376833516e-39
-14.37066079 -55.39619974 506 9.376833516e-39
-11.73298417 -55.39619974 506 9.376833516e-39
-9.09530755 -55.39619974 506 9.376833516e-39
-6.470393046 -55.50567839 507 9.376833516e-39
-3.827503627 -55.50567839 507 9.376833516e-39
-1.186950725 -55.61515705 508 9.376833516e-39
1.461151495 -55.61515705 508 9.376833516e-39
-367.377874 -46.08550834 442 9.376833516e-39
-365.0738165 -46.08550834 442 9.376833516e-39
-362.7697591 -46.08550834 442 9.376833516e-39
-360.4657016 -46.08550834 442 9.376833516e-39
-358.9719647 -46.18977419 443 9.376833516e-39
-356.6626944 -46.18977419 443 9.376833516e-39
-355.153319 -46.29404005 444 9.376833516e-39
-353.6335181 -46.3983059 445 9.376833516e-39
-352.1032915 -46.50257176 446 9.376833516e-39
-350.5626393 -46.60683762 447 9.376833516e-39
-349.7906052 -46.81536933 449 9.376833516e-39
-348.223889 -46.91963518 450 9.376833516e-39
-346.6467472 -47.02390104 451 9.376833516e-39
-345.0591799 -47.1281669 452 9.376833516e-39
-344.2193794 -47.33669861 454 9.376833516e-39
-341.8527683 -47.33669861 454 9.376833516e-39
-339.4861573 -47.33669861 454 9.376833516e-39
-337.8621003 -47.44096446 455 9.376833516e-39
-335.4902765 -47.44096446 455 9.376833516e-39
-333.8505811 -47.54523032 456 9.376833516e-39
-331.4735445 -47.54523032 456 9.376833516e-39
-329.8182107 -47.64949618 457 9.376833516e-39
-328.1524513 -47.75376203 458 9.376833516e-39
-325.7649891 -47.75376203 458 9.376833516e-39
-324.7896558 -47.96229374 460 9.376833516e-39
-322.391768 -47.96229374 460 9.376833516e-39
-320.689519 -48.0665596 461 9.376833516e-39
-318.9768444 -48.17082546 462 9.376833516e-39
-316.568531 -48.17082546 462 9.376833516e-39
-314.1602175 -48.17082546 462 9.376833516e-39
-312.4266918 -48.27509131 463 9.376833516e-39
-310.0131655 -48.27509131 463 9.376833516e-39
-308.2640014 -48.37935717 464 9.376833516e-39
-305.8452624 -48.37935717 464 9.376833516e-39
-303.4265233 -48.37935717 464 9.376833516e-39
-301.656508 -48.48362302 465 9.376833516e-39
-299.2325561 -48.48362302 465 9.376833516e-39
-296.8086043 -48.48362302 465 9.376833516e-39
-295.0177377 -48.58788888 466 9.376833516e-39
-293.844318 -48.79642059 468 9.376833516e-39
-292.0273875 -48.90068645 469 9.376833516e-39
-289.5825844 -48.90068645 469 9.376833516e-39
-288.3622496 -49.10921816 471 9.376833516e-39
-286.5140422 -49.21348401 472 9.376833516e-39
-284.6554093 -49.31774987 473 9.376833516e-39
-282.7863507 -49.42201573 474 9.376833516e-39
-280.9068665 -49.52628158 475 9.376833516e-39
-279.0169568 -49.63054744 476 9.376833516e-39
-276.5356642 -49.63054744 476 9.376833516e-39
-274.630116 -49.73481329 477 9.376833516e-39
-272.7141423 -49.83907915 478 9.376833516e-39
-270.222424 -49.83907915 478 9.376833516e-39
-267.7307058 -49.83907915 478 9.376833516e-39
-265.7938808 -49.94334501 479 9.376833516e-39
-263.2969498 -49.94334501 479 9.376833516e-39
-260.8000188 -49.94334501 479 9.376833516e-39
-258.3030878 -49.94334501 479 9.376833516e-39
-255.8061567 -49.94334501 479 9.376833516e-39
-253.3092257 -49.94334501 479 9.376833516e-39
-250.8122947 -49.94334501 479 9.376833516e-39
-248.3153636 -49.94334501 479 9.376833516e-39
-245.8184326 -49.94334501 479 9.376833516e-39
-243.3215016 -49.94334501 479 9.376833516e-39
-240.8245706 -49.94334501 479 9.376833516e-39
-238.3276395 -49.94334501 479 9.376833516e-39
-235.8307085 -49.94334501 479 9.376833516e-39
-233.8209043 -50.04761086 480 9.376833516e-39
-231.3187605 -50.04761086 480 9.376833516e-39
-228.3399154 -49.94334501 479 9.376833516e-39
-226.3144729 -50.04761086 480 9.376833516e-39
-224.2786047 -50.15187672 481 9.376833516e-39
-222.232311 -50.25614257 482 9.376833516e-39
-220.6314417 -50.46467429 484 9.376833516e-39
-218.559084 -50.56894014 485 9.376833516e-39
-216.4763006 -50.673206 486 9.376833516e-39
-214.3830917 -50.77747185 487 9.376833516e-39
-212.2794572 -50.88173771 488 9.376833516e-39
-209.7356109 -50.88173771 488 9.376833516e-39
-202.5182199 -50.98600357 489 9.376833516e-39
-199.9691609 -50.98600357 489 9.376833516e-39
-185.6923822 -50.56894014 485 9.376833516e-39
-182.7865163 -50.46467429 484 9.376833516e-39
-180.2635213 -50.46467429 484 9.376833516e-39
-177.3732938 -50.36040843 483 9.376833516e-39
-174.8555115 -50.36040843 483 9.376833516e-39
-171.9809224 -50.25614257 482 9.376833516e-39
-169.8199471 -50.36040843 483 9.376833516e-39
-167.3021648 -50.36040843 483 9.376833516e-39
-164.4432141 -50.25614257 482 9.376833516e-39
-162.2666004 -50.36040843 483 9.376833516e-39
-159.7488182 -50.36040843 483 9.376833516e-39
-157.556566 -50.46467429 484 9.376833516e-39
-155.033571 -50.46467429 484 9.376833516e-39
-152.510576 -50.46467429 484 9.376833516e-39
-149.9875809 -50.46467429 484 9.376833516e-39
-147.4645859 -50.46467429 484 9.376833516e-39
-144.9415909 -50.46467429 484 9.376833516e-39
-142.4185959 -50.46467429 484 9.376833516e-39
-140.1846413 -50.56894014 485 9.376833516e-39
-137.9402612 -50.673206 486 9.376833516e-39
-135.6854555 -50.77747185 487 9.376833516e-39
-133.6936262 -50.98600357 489 9.376833516e-39
-131.6809458 -51.19453528 491 9.376833516e-39
-126.5619766 -51.19453528 491 9.376833516e-39
-125.2652464 -51.71586456 496 9.376833516e-39
-122.6796978 -51.71586456 496 9.376833516e-39
-120.3362745 -51.82013041 497 9.376833516e-39
-117.7455131 -51.82013041 497 9.376833516e-39
-115.1547516 -51.82013041 497 9.376833516e-39
-112.5639902 -51.82013041 497 9.376833516e-39
-109.9732288 -51.82013041 497 9.376833516e-39
-107.3824674 -51.82013041 497 9.376833516e-39
-104.791706 -51.82013041 497 9.376833516e-39
-102.2009445 -51.82013041 497 9.376833516e-39
-99.61018311 -51.82013041 497 9.376833516e-39
-97.01942169 -51.82013041 497 9.376833516e-39
-94.42866026 -51.82013041 497 9.376833516e-39
-91.83789884 -51.82013041 497 9.376833516e-39
-89.24713742 -51.82013041 497 9.376833516e-39
-86.656376 -51.82013041 497 9.376833516e-39
-84.06561457 -51.82013041 497 9.376833516e-39
-81.47485315 -51.82013041 497 9.376833516e-39
-78.88409173 -51.82013041 497 9.376833516e-39
-76.2933303 -51.82013041 497 9.376833516e-39
-73.70256888 -51.82013041 497 9.376833516e-39
-70.96872535 -51.71586456 496 9.376833516e-39
-68.38317673 -51.71586456 496 9.376833516e-39
-65.7976281 -51.71586456 496 9.376833516e-39
-63.21207948 -51.71586456 496 9.376833516e-39
-60.87099267 -51.92439627 498 9.376833516e-39
-58.27501845 -51.92439627 498 9.376833516e-39
-55.79084954 -52.02866213 499 9.376833516e-39
-53.18966252 -52.02866213 499 9.376833516e-39
-50.58847549 -52.02866213 499 9.376833516e-39
-48.08345538 -52.13292798 500 9.376833516e-39
-45.56800967 -52.23719384 501 9.376833516e-39
-42.95639705 -52.23719384 501 9.376833516e-39
-40.42531294 -52.34145969 502 9.376833516e-39
-37.88380323 -52.44572555 503 9.376833516e-39
-35.26176501 -52.44572555 503 9.376833516e-39
-32.63972679 -52.44572555 503 9.376833516e-39
-30.07736588 -52.54999141 504 9.376833516e-39
-27.50457937 -52.65425726 505 9.376833516e-39
-24.87211555 -52.65425726 505 9.376833516e-39
-22.23965173 -52.65425726 505 9.376833516e-39
-19.60718791 -52.65425726 505 9.376833516e-39
-17.00833741 -52.75852312 506 9.376833516e-39
-14.37066079 -52.75852312 506 9.376833516e-39
-11.73298417 -52.75852312 506 9.376833516e-39
-9.113282466 -52.86278897 507 9.376833516e-39
-6.483155163 -52.96705483 508 9.376833516e-39
-3.835052944 -52.96705483 508 9.376833516e-39
-1.186950725 -52.96705483 508 9.376833516e-39
1.464027777 -53.07132069 509 9.376833516e-39
-367.377874 -43.78145089 442 9.376833516e-39
-365.0738165 -43.78145089 442 9.376833516e-39
-362.7697591 -43.78145089 442 9.376833516e-39
-361.2812349 -43.88050395 443 9.376833516e-39
-358.9719647 -43.88050395 443 9.376833516e-39
-356.6626944 -43.88050395 443 9.376833516e-39
-355.153319 -43.97955701 444 9.376833516e-39
-353.6335181 -44.07861006 445 9.376833516e-39
-352.1032915 -44.17766312 446 9.376833516e-39
-350.5626393 -44.27671617 447 9.376833516e-39
-349.7906052 -44.47482229 449 9.376833516e-39
-348.223889 -44.57387534 450 9.376833516e-39
-345.8781292 -44.57387534 450 9.376833516e-39
-345.0591799 -44.77198146 452 9.376833516e-39
-342.7029944 -44.77198146 452 9.376833516e-39
-341.0997887 -44.87103451 453 9.376833516e-39
-339.4861573 -44.97008757 454 9.376833516e-39
-337.1195462 -44.97008757 454 9.376833516e-39
-335.4902765 -45.06914063 455 9.376833516e-39
-333.1184526 -45.06914063 455 9.376833516e-39
-330.7466288 -45.06914063 455 9.376833516e-39
-329.8182107 -45.26724674 457 9.376833516e-39
-328.1524513 -45.36629979 458 9.376833516e-39
-325.7649891 -45.36629979 458 9.376833516e-39
-324.7896558 -45.56440591 460 9.376833516e-39
-323.0926196 -45.66345896 461 9.376833516e-39
-320.689519 -45.66345896 461 9.376833516e-39
-318.9768444 -45.76251202 462 9.376833516e-39
-316.568531 -45.76251202 462 9.376833516e-39
-314.840218 -45.86156508 463 9.376833516e-39
-312.4266918 -45.86156508 463 9.376833516e-39
-310.0131655 -45.86156508 463 9.376833516e-39
-308.2640014 -45.96061813 464 9.376833516e-39
-306.5044116 -46.05967119 465 9.376833516e-39
-304.0804598 -46.05967119 465 9.376833516e-39
-302.3052316 -46.15872424 466 9.376833516e-39
-299.876067 -46.15872424 466 9.376833516e-39
-297.4469024 -46.15872424 466 9.376833516e-39
-295.650823 -46.2577773 467 9.376833516e-39
-293.844318 -46.35683036 468 9.376833516e-39
-292.0273875 -46.45588341 469 9.376833516e-39
-290.2000313 -46.55493647 470 9.376833516e-39
-288.9744836 -46.75304258 472 9.376833516e-39
-287.1210635 -46.85209564 473 9.376833516e-39
-284.6554093 -46.85209564 473 9.376833516e-39
-282.7863507 -46.9511487 474 9.376833516e-39
-280.9068665 -47.05020175 475 9.376833516e-39
-279.0169568 -47.14925481 476 9.376833516e-39
-276.5356642 -47.14925481 476 9.376833516e-39
-274.0543715 -47.14925481 476 9.376833516e-39
-272.1436106 -47.24830786 477 9.376833516e-39
-269.6571051 -47.24830786 477 9.376833516e-39
-267.7307058 -47.34736092 478 9.376833516e-39
-265.2389876 -47.34736092 478 9.376833516e-39
-263.2969498 -47.44641398 479 9.376833516e-39
-260.8000188 -47.44641398 479 9.376833516e-39
-257.7638329 -47.34736092 478 9.376833516e-39
-255.8061567 -47.44641398 479 9.376833516e-39
-253.3092257 -47.44641398 479 9.376833516e-39
-250.8122947 -47.44641398 479 9.376833516e-39
-248.3153636 -47.44641398 479 9.376833516e-39
-245.8184326 -47.44641398 479 9.376833516e-39
-242.8135235 -47.34736092 478 9.376833516e-39
-240.8245706 -47.44641398 479 9.376833516e-39
-238.3276395 -47.44641398 479 9.376833516e-39
-235.8307085 -47.44641398 479 9.376833516e-39
-233.3337775 -47.44641398 479 9.376833516e-39
-230.8368464 -47.44641398 479 9.376833516e-39
-228.3399154 -47.44641398 479 9.376833516e-39
-225.8429844 -47.44641398 479 9.376833516e-39
-224.2786047 -47.64452009 481 9.376833516e-39
-222.232311 -47.74357315 482 9.376833516e-39
-220.1755916 -47.8426262 483 9.376833516e-39
-215.5854517 -47.94167926 484 9.376833516e-39
-213.5026683 -48.04073231 485 9.376833516e-39
-211.8444583 -48.23883843 487 9.376833516e-39
-209.3058248 -48.23883843 487 9.376833516e-39
-205.9180448 -48.04073231 485 9.376833516e-39
-203.389837 -48.04073231 485 9.376833516e-39
-201.6899246 -48.23883843 487 9.376833516e-39
-199.1512911 -48.23883843 487 9.376833516e-39
-194.9977694 -47.8426262 483 9.376833516e-39
-192.0814778 -47.74357315 482 9.376833516e-39
-189.5689084 -47.74357315 482 9.376833516e-39
-187.056339 -47.74357315 482 9.376833516e-39
-184.5437695 -47.74357315 482 9.376833516e-39
-182.0312001 -47.74357315 482 9.376833516e-39
-179.5186307 -47.74357315 482 9.376833516e-39
-177.0060613 -47.74357315 482 9.376833516e-39
-174.4934918 -47.74357315 482 9.376833516e-39
-171.9809224 -47.74357315 482 9.376833516e-39
-169.468353 -47.74357315 482 9.376833516e-39
-166.9557836 -47.74357315 482 9.376833516e-39
-164.4432141 -47.74357315 482 9.376833516e-39
-161.9306447 -47.74357315 482 9.376833516e-39
-159.7488182 -47.8426262 483 9.376833516e-39
-156.9055058 -47.74357315 482 9.376833516e-39
-154.3929364 -47.74357315 482 9.376833516e-39
-151.880367 -47.74357315 482 9.376833516e-39
-149.3677976 -47.74357315 482 9.376833516e-39
-146.8552281 -47.74357315 482 9.376833516e-39
-144.3426587 -47.74357315 482 9.376833516e-39
-141.8300893 -47.74357315 482 9.376833516e-39
-139.3175198 -47.74357315 482 9.376833516e-39
-137.0887781 -47.8426262 483 9.376833516e-39
-134.5709959 -47.8426262 483 9.376833516e-39
-115.1547516 -49.22936899 497 9.376833516e-39
-112.7904771 -49.32842205 498 9.376833516e-39
-110.1945029 -49.32842205 498 9.376833516e-39
-107.5985287 -49.32842205 498 9.376833516e-39
-105.213403 -49.4274751 499 9.376833516e-39
-102.6122159 -49.4274751 499 9.376833516e-39
-100.0110289 -49.4274751 499 9.376833516e-39
-97.4098419 -49.4274751 499 9.376833516e-39
-94.80865487 -49.4274751 499 9.376833516e-39
-92.39225236 -49.52652816 500 9.376833516e-39
-89.78585253 -49.52652816 500 9.376833516e-39
-87.17945271 -49.52652816 500 9.376833516e-39
-84.57305289 -49.52652816 500 9.376833516e-39
-82.13058637 -49.62558122 501 9.376833516e-39
-79.36025325 -49.52652816 500 9.376833516e-39
-76.75385342 -49.52652816 500 9.376833516e-39
-74.1474536 -49.52652816 500 9.376833516e-39
-71.54105378 -49.52652816 500 9.376833516e-39
-68.93465396 -49.52652816 500 9.376833516e-39
-66.32825414 -49.52652816 500 9.376833516e-39
-63.72185431 -49.52652816 500 9.376833516e-39
-61.11545449 -49.52652816 500 9.376833516e-39
-58.50905467 -49.52652816 500 9.376833516e-39
-55.90265485 -49.52652816 500 9.376833516e-39
-53.29625503 -49.52652816 500 9.376833516e-39
-50.6898552 -49.52652816 500 9.376833516e-39
-48.17962229 -49.62558122 501 9.376833516e-39
-45.56800967 -49.62558122 501 9.376833516e-39
-42.95639705 -49.62558122 501 9.376833516e-39
-40.42531294 -49.72463427 502 9.376833516e-39
-37.88380323 -49.82368733 503 9.376833516e-39
-35.26176501 -49.82368733 503 9.376833516e-39
-32.63972679 -49.82368733 503 9.376833516e-39
-30.07736588 -49.92274039 504 9.376833516e-39
-27.45011486 -49.92274039 504 9.376833516e-39
-24.87211555 -50.02179344 505 9.376833516e-39
-22.23965173 -50.02179344 505 9.376833516e-39
-19.60718791 -50.02179344 505 9.376833516e-39
-17.00833741 -50.1208465 506 9.376833516e-39
-14.37066079 -50.1208465 506 9.376833516e-39
-11.73298417 -50.1208465 506 9.376833516e-39
-9.113282466 -50.21989955 507 9.376833516e-39
-6.483155163 -50.31895261 508 9.376833516e-39
-3.835052944 -50.31895261 508 9.376833516e-39
-1.186950725 -50.31895261 508 9.376833516e-39
1.464027777 -50.41800567 509 9.376833516e-39
-367.377874 -41.47739345 442 9.376833516e-39
-365.0738165 -41.47739345 442 9.376833516e-39
-362.7697591 -41.47739345 442 9.376833516e-39
-361.2812349 -41.57123371 443 9.376833516e-39
-358.9719647 -41.57123371 443 9.376833516e-39
-356.6626944 -41.57123371 443 9.376833516e-39
-355.153319 -41.66507396 444 9.376833516e-39
-353.6335181 -41.75891422 445 9.376833516e-39
-352.1032915 -41.85275448 446 9.376833516e-39
-349.7783828 -41.85275448 446 9.376833516e-39
-349.0115615 -42.04043499 448 9.376833516e-39
-347.4500581 -42.13427525 449 9.376833516e-39
-345.8781292 -42.2281155 450 9.376833516e-39
-344.2957746 -42.32195576 451 9.376833516e-39
-342.7029944 -42.41579602 452 9.376833516e-39
-340.346809 -42.41579602 452 9.376833516e-39
-338.7383904 -42.50963627 453 9.376833516e-39
-337.1195462 -42.60347653 454 9.376833516e-39
-334.7529352 -42.60347653 454 9.376833516e-39
-333.1184526 -42.69731679 455 9.376833516e-39
-330.7466288 -42.69731679 455 9.376833516e-39
-329.8182107 -42.8849973 457 9.376833516e-39
-328.1524513 -42.97883756 458 9.376833516e-39
-326.4762664 -43.07267781 459 9.376833516e-39
-324.7896558 -43.16651807 460 9.376833516e-39
-323.0926196 -43.26035833 461 9.376833516e-39
-321.3851579 -43.35419858 462 9.376833516e-39
-318.9768444 -43.35419858 462 9.376833516e-39
-317.2537443 -43.44803884 463 9.376833516e-39
-314.840218 -43.44803884 463 9.376833516e-39
-313.1014795 -43.5418791 464 9.376833516e-39
-311.3523153 -43.63571935 465 9.376833516e-39
-308.9283635 -43.63571935 465 9.376833516e-39
-306.5044116 -43.63571935 465 9.376833516e-39
-304.0804598 -43.63571935 465 9.376833516e-39
-302.3052316 -43.72955961 466 9.376833516e-39
-299.876067 -43.72955961 466 9.376833516e-39
-297.4469024 -43.72955961 466 9.376833516e-39
-295.650823 -43.82339987 467 9.376833516e-39
-293.844318 -43.91724012 468 9.376833516e-39
-292.0273875 -44.01108038 469 9.376833516e-39
-290.2000313 -44.10492064 470 9.376833516e-39
-288.9744836 -44.29260115 472 9.376833516e-39
-286.5140422 -44.29260115 472 9.376833516e-39
-284.6554093 -44.38644141 473 9.376833516e-39
-282.7863507 -44.48028166 474 9.376833516e-39
-280.9068665 -44.57412192 475 9.376833516e-39
-278.4307867 -44.57412192 475 9.376833516e-39
-276.5356642 -44.66796218 476 9.376833516e-39
-274.0543715 -44.66796218 476 9.376833516e-39
-271.5730789 -44.66796218 476 9.376833516e-39
-269.6571051 -44.76180243 477 9.376833516e-39
-267.1705997 -44.76180243 477 9.376833516e-39
-265.2389876 -44.85564269 478 9.376833516e-39
-262.7472693 -44.85564269 478 9.376833516e-39
-260.2555511 -44.85564269 478 9.376833516e-39
-257.7638329 -44.85564269 478 9.376833516e-39
-255.2721146 -44.85564269 478 9.376833516e-39
-252.7803964 -44.85564269 478 9.376833516e-39
-250.2886782 -44.85564269 478 9.376833516e-39
-247.79696 -44.85564269 478 9.376833516e-39
-245.3052417 -44.85564269 478 9.376833516e-39
-242.8135235 -44.85564269 478 9.376833516e-39
-240.3218053 -44.85564269 478 9.376833516e-39
-237.3325346 -44.76180243 477 9.376833516e-39
-234.8460291 -44.76180243 477 9.376833516e-39
-232.8466506 -44.85564269 478 9.376833516e-39
-230.3549323 -44.85564269 478 9.376833516e-39
-227.8632141 -44.85564269 478 9.376833516e-39
-225.8429844 -44.94948295 479 9.376833516e-39
-224.2786047 -45.13716346 481 9.376833516e-39
-222.232311 -45.23100372 482 9.376833516e-39
-220.1755916 -45.32484397 483 9.376833516e-39
-218.1084467 -45.41868423 484 9.376833516e-39
-215.5854517 -45.41868423 484 9.376833516e-39
-213.5026683 -45.51252449 485 9.376833516e-39
-211.8444583 -45.700205 487 9.376833516e-39
-208.8760388 -45.60636474 486 9.376833516e-39
-188.7823154 -45.0433232 480 9.376833516e-39
-186.6682553 -45.13716346 481 9.376833516e-39
-184.1608987 -45.13716346 481 9.376833516e-39
-181.653542 -45.13716346 481 9.376833516e-39
-179.1461854 -45.13716346 481 9.376833516e-39
-174.4934918 -45.23100372 482 9.376833516e-39
-171.6241155 -45.13716346 481 9.376833516e-39
-169.468353 -45.23100372 482 9.376833516e-39
-166.9557836 -45.23100372 482 9.376833516e-39
-164.4432141 -45.23100372 482 9.376833516e-39
-161.9306447 -45.23100372 482 9.376833516e-39
-159.7488182 -45.32484397 483 9.376833516e-39
-156.9055058 -45.23100372 482 9.376833516e-39
-154.3929364 -45.23100372 482 9.376833516e-39
-151.880367 -45.23100372 482 9.376833516e-39
-149.3677976 -45.23100372 482 9.376833516e-39
-146.8552281 -45.23100372 482 9.376833516e-39
-144.3426587 -45.23100372 482 9.376833516e-39
-141.8300893 -45.23100372 482 9.376833516e-39
-139.3175198 -45.23100372 482 9.376833516e-39
-136.8049504 -45.23100372 482 9.376833516e-39
-113.016964 -46.82628808 499 9.376833516e-39
-110.415777 -46.82628808 499 9.376833516e-39
-107.81459 -46.82628808 499 9.376833516e-39
-105.4242515 -46.92012834 500 9.376833516e-39
-102.8178516 -46.92012834 500 9.376833516e-39
-100.4118747 -47.01396859 501 9.376833516e-39
-97.8002621 -47.01396859 501 9.376833516e-39
-95.18864948 -47.01396859 501 9.376833516e-39
-92.76182137 -47.10780885 502 9.376833516e-39
-90.14499594 -47.10780885 502 9.376833516e-39
-87.52817052 -47.10780885 502 9.376833516e-39
-85.08049121 -47.20164911 503 9.376833516e-39
-82.45845299 -47.20164911 503 9.376833516e-39
-79.83641477 -47.20164911 503 9.376833516e-39
-77.06086884 -47.10780885 502 9.376833516e-39
-74.44404342 -47.10780885 502 9.376833516e-39
-71.827218 -47.10780885 502 9.376833516e-39
-69.21039257 -47.10780885 502 9.376833516e-39
-66.46091064 -47.01396859 501 9.376833516e-39
-63.84929802 -47.01396859 501 9.376833516e-39
-61.2376854 -47.01396859 501 9.376833516e-39
-58.62607278 -47.01396859 501 9.376833516e-39
-56.01446016 -47.01396859 501 9.376833516e-39
-53.40284754 -47.01396859 501 9.376833516e-39
-50.79123491 -47.01396859 501 9.376833516e-39
-48.17962229 -47.01396859 501 9.376833516e-39
-45.65896378 -47.10780885 502 9.376833516e-39
-43.04213836 -47.10780885 502 9.376833516e-39
-40.50584145 -47.20164911 503 9.376833516e-39
-37.88380323 -47.20164911 503 9.376833516e-39
-35.26176501 -47.20164911 503 9.376833516e-39
-32.63972679 -47.20164911 503 9.376833516e-39
-30.01768857 -47.20164911 503 9.376833516e-39
-27.45011486 -47.29548936 504 9.376833516e-39
-24.87211555 -47.38932962 505 9.376833516e-39
-22.23965173 -47.38932962 505 9.376833516e-39
-19.60718791 -47.38932962 505 9.376833516e-39
-17.00833741 -47.48316988 506 9.376833516e-39
-14.37066079 -47.48316988 506 9.376833516e-39
-11.73298417 -47.48316988 506 9.376833516e-39
-9.113282466 -47.57701013 507 9.376833516e-39
-6.483155163 -47.67085039 508 9.376833516e-39
-3.835052944 -47.67085039 508 9.376833516e-39
-1.186950725 -47.67085039 508 9.376833516e-39
1.464027777 -47.76469065 509 9.376833516e-39
-368.2090456 -39.26196347 443 9.376833516e-39
-365.0738165 -39.17333601 442 9.376833516e-39
-363.5905051 -39.26196347 443 9.376833516e-39
-361.2812349 -39.26196347 443 9.376833516e-39
-358.9719647 -39.26196347 443 9.376833516e-39
-356.6626944 -39.26196347 443 9.376833516e-39
-354.3534242 -39.26196347 443 9.376833516e-39
-353.6335181 -39.43921838 445 9.376833516e-39
-352.1032915 -39.52784584 446 9.376833516e-39
-349.7783828 -39.52784584 446 9.376833516e-39
-349.0115615 -39.70510075 448 9.376833516e-39
-347.4500581 -39.79372821 449 9.376833516e-39
-345.8781292 -39.88235566 450 9.376833516e-39
-344.2957746 -39.97098312 451 9.376833516e-39
-341.944802 -39.97098312 451 9.376833516e-39
-340.346809 -40.05961058 452 9.376833516e-39
-337.9906235 -40.05961058 452 9.376833516e-39
-336.3769922 -40.14823804 453 9.376833516e-39
-334.7529352 -40.23686549 454 9.376833516e-39
-333.1184526 -40.32549295 455 9.376833516e-39
-330.7466288 -40.32549295 455 9.376833516e-39
-329.8182107 -40.50274786 457 9.376833516e-39
-328.1524513 -40.59137532 458 9.376833516e-39
-326.4762664 -40.68000278 459 9.376833516e-39
-324.7896558 -40.76863023 460 9.376833516e-39
-323.0926196 -40.85725769 461 9.376833516e-39
-321.3851579 -40.94588515 462 9.376833516e-39
-319.6672705 -41.03451261 463 9.376833516e-39
-317.2537443 -41.03451261 463 9.376833516e-39
-315.5202185 -41.12314006 464 9.376833516e-39
-313.1014795 -41.12314006 464 9.376833516e-39
-311.3523153 -41.21176752 465 9.376833516e-39
-308.9283635 -41.21176752 465 9.376833516e-39
-307.1635609 -41.30039498 466 9.376833516e-39
-304.7343963 -41.30039498 466 9.376833516e-39
-302.3052316 -41.30039498 466 9.376833516e-39
-300.5195779 -41.38902243 467 9.376833516e-39
-298.0852004 -41.38902243 467 9.376833516e-39
-295.650823 -41.38902243 467 9.376833516e-39
-293.844318 -41.47764989 468 9.376833516e-39
-292.0273875 -41.56627735 469 9.376833516e-39
-290.2000313 -41.6549048 470 9.376833516e-39
-288.3622496 -41.74353226 471 9.376833516e-39
-286.5140422 -41.83215972 472 9.376833516e-39
-284.6554093 -41.92078718 473 9.376833516e-39
-282.189755 -41.92078718 473 9.376833516e-39
-280.3154837 -42.00941463 474 9.376833516e-39
-277.8446166 -42.00941463 474 9.376833516e-39
-275.9547069 -42.09804209 475 9.376833516e-39
-273.4786271 -42.09804209 475 9.376833516e-39
-271.5730789 -42.18666955 476 9.376833516e-39
-269.0917863 -42.18666955 476 9.376833516e-39
-266.6104936 -42.18666955 476 9.376833516e-39
-264.6840943 -42.275297 477 9.376833516e-39
-262.7472693 -42.36392446 478 9.376833516e-39
-260.2555511 -42.36392446 478 9.376833516e-39
-257.7638329 -42.36392446 478 9.376833516e-39
-255.2721146 -42.36392446 478 9.376833516e-39
-252.7803964 -42.36392446 478 9.376833516e-39
-250.2886782 -42.36392446 478 9.376833516e-39
-247.79696 -42.36392446 478 9.376833516e-39
-245.3052417 -42.36392446 478 9.376833516e-39
-242.8135235 -42.36392446 478 9.376833516e-39
-239.3162747 -42.18666955 476 9.376833516e-39
-235.8398771 -42.00941463 474 9.376833516e-39
-233.3690101 -42.00941463 474 9.376833516e-39
-231.3852699 -42.09804209 475 9.376833516e-39
-228.9091901 -42.09804209 475 9.376833516e-39
-226.9098116 -42.18666955 476 9.376833516e-39
-225.8429844 -42.45255192 479 9.376833516e-39
-225.2111561 -42.80706175 483 9.376833516e-39
-224.0765625 -43.07294412 486 9.376833516e-39
-221.998992 -43.16157157 487 9.376833516e-39
-219.9109958 -43.25019903 488 9.376833516e-39
-217.3671496 -43.25019903 488 9.376833516e-39
-215.2635151 -43.33882649 489 9.376833516e-39
-212.714456 -43.33882649 489 9.376833516e-39
-209.3058248 -43.16157157 487 9.376833516e-39
-205.9180448 -42.98431666 485 9.376833516e-39
-202.9704765 -42.8956892 484 9.376833516e-39
-190.88595 -42.45255192 479 9.376833516e-39
-188.3890189 -42.45255192 479 9.376833516e-39
-185.8920879 -42.45255192 479 9.376833516e-39
-183.3951569 -42.45255192 479 9.376833516e-39
-180.8982258 -42.45255192 479 9.376833516e-39
-178.0288495 -42.36392446 478 9.376833516e-39
-175.9043638 -42.45255192 479 9.376833516e-39
-173.7694525 -42.54117938 480 9.376833516e-39
-171.2673086 -42.54117938 480 9.376833516e-39
-169.1167589 -42.62980683 481 9.376833516e-39
-166.9557836 -42.71843429 482 9.376833516e-39
-164.4432141 -42.71843429 482 9.376833516e-39
-161.9306447 -42.71843429 482 9.376833516e-39
-159.7488182 -42.80706175 483 9.376833516e-39
-157.2310359 -42.80706175 483 9.376833516e-39
-154.7132537 -42.80706175 483 9.376833516e-39
-152.1954715 -42.80706175 483 9.376833516e-39
-149.3677976 -42.71843429 482 9.376833516e-39
-146.8552281 -42.71843429 482 9.376833516e-39
-144.3426587 -42.71843429 482 9.376833516e-39
-141.8300893 -42.71843429 482 9.376833516e-39
-139.3175198 -42.71843429 482 9.376833516e-39
-136.8049504 -42.71843429 482 9.376833516e-39
-113.2434509 -44.31372852 500 9.376833516e-39
-110.6370511 -44.31372852 500 9.376833516e-39
-108.2467126 -44.40235597 501 9.376833516e-39
-105.8459485 -44.49098343 502 9.376833516e-39
-103.2291231 -44.49098343 502 9.376833516e-39
-100.8127205 -44.57961089 503 9.376833516e-39
-98.19068231 -44.57961089 503 9.376833516e-39
-95.56864409 -44.57961089 503 9.376833516e-39
-93.13139037 -44.66823834 504 9.376833516e-39
-90.50413935 -44.66823834 504 9.376833516e-39
-88.05124724 -44.7568658 505 9.376833516e-39
-85.41878342 -44.7568658 505 9.376833516e-39
-82.7863196 -44.7568658 505 9.376833516e-39
-80.15385578 -44.7568658 505 9.376833516e-39
-77.52139196 -44.7568658 505 9.376833516e-39
-74.88892814 -44.7568658 505 9.376833516e-39
-72.11338221 -44.66823834 504 9.376833516e-39
-69.48613119 -44.66823834 504 9.376833516e-39
-66.72622366 -44.57961089 503 9.376833516e-39
-64.10418544 -44.57961089 503 9.376833516e-39
-61.35991631 -44.49098343 502 9.376833516e-39
-58.74309089 -44.49098343 502 9.376833516e-39
-56.12626547 -44.49098343 502 9.376833516e-39
-53.50944005 -44.49098343 502 9.376833516e-39
-50.89261463 -44.49098343 502 9.376833516e-39
-48.2757892 -44.49098343 502 9.376833516e-39
-45.65896378 -44.49098343 502 9.376833516e-39
-43.12787967 -44.57961089 503 9.376833516e-39
-40.50584145 -44.57961089 503 9.376833516e-39
-37.88380323 -44.57961089 503 9.376833516e-39
-35.26176501 -44.57961089 503 9.376833516e-39
-32.7046169 -44.66823834 504 9.376833516e-39
-30.07736588 -44.66823834 504 9.376833516e-39
-27.45011486 -44.66823834 504 9.376833516e-39
-24.87211555 -44.7568658 505 9.376833516e-39
-22.23965173 -44.7568658 505 9.376833516e-39
-19.60718791 -44.7568658 505 9.376833516e-39
-17.00833741 -44.84549326 506 9.376833516e-39
-14.37066079 -44.84549326 506 9.376833516e-39
-11.73298417 -44.84549326 506 9.376833516e-39
-9.113282466 -44.93412072 507 9.376833516e-39
-6.483155163 -45.02274817 508 9.376833516e-39
-3.835052944 -45.02274817 508 9.376833516e-39
-1.186950725 -45.02274817 508 9.376833516e-39
1.464027777 -45.11137563 509 9.376833516e-39
-367.377874 -36.86927857 442 9.376833516e-39
-365.0738165 -36.86927857 442 9.376833516e-39
-362.7697591 -36.86927857 442 9.376833516e-39
-360.4657016 -36.86927857 442 9.376833516e-39
-358.1616442 -36.86927857 442 9.376833516e-39
-356.6626944 -36.95269322 443 9.376833516e-39
-354.3534242 -36.95269322 443 9.376833516e-39
-352.838836 -37.03610788 444 9.376833516e-39
-351.3138222 -37.11952254 445 9.376833516e-39
-348.9941264 -37.11952254 445 9.376833516e-39
-348.2325179 -37.28635185 447 9.376833516e-39
-346.6762273 -37.36976651 448 9.376833516e-39
-345.1095111 -37.45318117 449 9.376833516e-39
-343.5323693 -37.53659582 450 9.376833516e-39
-341.944802 -37.62001048 451 9.376833516e-39
-339.5938293 -37.62001048 451 9.376833516e-39
-337.2428567 -37.62001048 451 9.376833516e-39
-336.3769922 -37.7868398 453 9.376833516e-39
-334.7529352 -37.87025445 454 9.376833516e-39
-332.3863242 -37.87025445 454 9.376833516e-39
-330.7466288 -37.95366911 455 9.376833516e-39
-330.5399136 -38.20391308 458 9.376833516e-39
-328.1524513 -38.20391308 458 9.376833516e-39
-327.1875436 -38.3707424 460 9.376833516e-39
-325.4957203 -38.45415706 461 9.376833516e-39
-323.7934713 -38.53757171 462 9.376833516e-39
-322.0807967 -38.62098637 463 9.376833516e-39
-319.6672705 -38.62098637 463 9.376833516e-39
-317.9389575 -38.70440103 464 9.376833516e-39
-316.200219 -38.78781569 465 9.376833516e-39
-313.7762671 -38.78781569 465 9.376833516e-39
-312.0218902 -38.87123034 466 9.376833516e-39
-309.5927255 -38.87123034 466 9.376833516e-39
-307.1635609 -38.87123034 466 9.376833516e-39
-304.7343963 -38.87123034 466 9.376833516e-39
-302.9539553 -38.954645 467 9.376833516e-39
-300.5195779 -38.954645 467 9.376833516e-39
-298.0852004 -38.954645 467 9.376833516e-39
-295.650823 -38.954645 467 9.376833516e-39
-293.844318 -39.03805966 468 9.376833516e-39
-292.0273875 -39.12147431 469 9.376833516e-39
-289.5825844 -39.12147431 469 9.376833516e-39
-287.7500155 -39.20488897 470 9.376833516e-39
-286.5140422 -39.37171829 472 9.376833516e-39
-284.6554093 -39.45513294 473 9.376833516e-39
-282.189755 -39.45513294 473 9.376833516e-39
-279.7241008 -39.45513294 473 9.376833516e-39
-277.2584466 -39.45513294 473 9.376833516e-39
-275.3737496 -39.5385476 474 9.376833516e-39
-272.9028826 -39.5385476 474 9.376833516e-39
-271.0025472 -39.62196226 475 9.376833516e-39
-268.5264674 -39.62196226 475 9.376833516e-39
-266.6104936 -39.70537692 476 9.376833516e-39
-264.129201 -39.70537692 476 9.376833516e-39
-262.1975889 -39.78879157 477 9.376833516e-39
-260.2555511 -39.87220623 478 9.376833516e-39
-257.7638329 -39.87220623 478 9.376833516e-39
-255.2721146 -39.87220623 478 9.376833516e-39
-252.7803964 -39.87220623 478 9.376833516e-39
-249.7650617 -39.78879157 477 9.376833516e-39
-247.2785563 -39.78879157 477 9.376833516e-39
-244.27886 -39.70537692 476 9.376833516e-39
-241.2895893 -39.62196226 475 9.376833516e-39
-237.8079789 -39.45513294 473 9.376833516e-39
-234.8447721 -39.37171829 472 9.376833516e-39
-225.8429844 -39.95562089 479 9.376833516e-39
-225.6774318 -40.37269418 484 9.376833516e-39
-224.9986883 -40.70635281 488 9.376833516e-39
-220.3616331 -40.78976746 489 9.376833516e-39
-218.2579986 -40.87318212 490 9.376833516e-39
-215.2635151 -40.78976746 489 9.376833516e-39
-212.714456 -40.78976746 489 9.376833516e-39
-209.3058248 -40.62293815 487 9.376833516e-39
-205.9180448 -40.45610883 485 9.376833516e-39
-192.9791589 -39.87220623 478 9.376833516e-39
-190.4874407 -39.87220623 478 9.376833516e-39
-187.9957224 -39.87220623 478 9.376833516e-39
-185.5040042 -39.87220623 478 9.376833516e-39
-182.6294151 -39.78879157 477 9.376833516e-39
-180.1429097 -39.78879157 477 9.376833516e-39
-177.6564042 -39.78879157 477 9.376833516e-39
-175.5371313 -39.87220623 478 9.376833516e-39
-173.0454131 -39.87220623 478 9.376833516e-39
-170.5536948 -39.87220623 478 9.376833516e-39
-168.4135707 -39.95562089 479 9.376833516e-39
-166.6094023 -40.1224502 481 9.376833516e-39
-164.1020456 -40.1224502 481 9.376833516e-39
-161.9306447 -40.20586486 482 9.376833516e-39
-159.7488182 -40.28927952 483 9.376833516e-39
-157.2310359 -40.28927952 483 9.376833516e-39
-154.7132537 -40.28927952 483 9.376833516e-39
-152.1954715 -40.28927952 483 9.376833516e-39
-149.6776892 -40.28927952 483 9.376833516e-39
-147.159907 -40.28927952 483 9.376833516e-39
-144.6421248 -40.28927952 483 9.376833516e-39
-142.1243426 -40.28927952 483 9.376833516e-39
-139.6065603 -40.28927952 483 9.376833516e-39
-135.4068406 -40.53952349 486 9.376833516e-39
-111.0795993 -41.87415801 502 9.376833516e-39
-108.6788352 -41.95757267 503 9.376833516e-39
-106.056797 -41.95757267 503 9.376833516e-39
-103.6403945 -42.04098732 504 9.376833516e-39
-101.4139892 -42.20781664 506 9.376833516e-39
-98.77631262 -42.20781664 506 9.376833516e-39
-96.138636 -42.20781664 506 9.376833516e-39
-93.68574389 -42.2912313 507 9.376833516e-39
-91.22242617 -42.37464595 508 9.376833516e-39
-88.57432396 -42.37464595 508 9.376833516e-39
-85.92622174 -42.37464595 508 9.376833516e-39
-83.27811952 -42.37464595 508 9.376833516e-39
-80.6300173 -42.37464595 508 9.376833516e-39
-77.98191508 -42.37464595 508 9.376833516e-39
-75.33381286 -42.37464595 508 9.376833516e-39
-72.54262853 -42.2912313 507 9.376833516e-39
-69.76186981 -42.20781664 506 9.376833516e-39
-67.12419319 -42.20781664 506 9.376833516e-39
-64.74140398 -42.37464595 508 9.376833516e-39
-61.84883995 -42.20781664 506 9.376833516e-39
-59.09414522 -42.12440198 505 9.376833516e-39
-56.34987609 -42.04098732 504 9.376833516e-39
-53.72262507 -42.04098732 504 9.376833516e-39
-50.99399434 -41.95757267 503 9.376833516e-39
-48.46812303 -42.04098732 504 9.376833516e-39
-45.840872 -42.04098732 504 9.376833516e-39
-43.21362098 -42.04098732 504 9.376833516e-39
-40.58636996 -42.04098732 504 9.376833516e-39
-38.03443466 -42.12440198 505 9.376833516e-39
-35.40197084 -42.12440198 505 9.376833516e-39
-32.7046169 -42.04098732 504 9.376833516e-39
-30.13704319 -42.12440198 505 9.376833516e-39
-27.50457937 -42.12440198 505 9.376833516e-39
-24.87211555 -42.12440198 505 9.376833516e-39
-22.28369065 -42.20781664 506 9.376833516e-39
-19.64601403 -42.20781664 506 9.376833516e-39
-17.00833741 -42.20781664 506 9.376833516e-39
-14.3990613 -42.2912313 507 9.376833516e-39
-11.75617189 -42.2912313 507 9.376833516e-39
-9.131257382 -42.37464595 508 9.376833516e-39
-6.483155163 -42.37464595 508 9.376833516e-39
-3.835052944 -42.37464595 508 9.376833516e-39
-1.189287242 -42.45806061 509 9.376833516e-39
1.464027777 -42.45806061 509 9.376833516e-39
-367.377874 -34.56522112 442 9.376833516e-39
-365.0738165 -34.56522112 442 9.376833516e-39
-362.7697591 -34.56522112 442 9.376833516e-39
-360.4657016 -34.56522112 442 9.376833516e-39
-358.1616442 -34.56522112 442 9.376833516e-39
-355.8575868 -34.56522112 442 9.376833516e-39
-354.3534242 -34.64342298 443 9.376833516e-39
-352.838836 -34.72162484 444 9.376833516e-39
-350.524353 -34.72162484 444 9.376833516e-39
-348.9941264 -34.7998267 445 9.376833516e-39
-348.2325179 -34.95623041 447 9.376833516e-39
-346.6762273 -35.03443227 448 9.376833516e-39
-345.1095111 -35.11263413 449 9.376833516e-39
-342.7689641 -35.11263413 449 9.376833516e-39
-341.1866095 -35.19083598 450 9.376833516e-39
-338.8408497 -35.19083598 450 9.376833516e-39
-337.2428567 -35.26903784 451 9.376833516e-39
-335.6344381 -35.3472397 452 9.376833516e-39
-334.0155939 -35.42544156 453 9.376833516e-39
-332.3863242 -35.50364342 454 9.376833516e-39
-330.7466288 -35.58184527 455 9.376833516e-39
-330.5399136 -35.81645085 458 9.376833516e-39
-328.8689414 -35.8946527 459 9.376833516e-39
-327.1875436 -35.97285456 460 9.376833516e-39
-326.2017847 -36.12925828 462 9.376833516e-39
-323.7934713 -36.12925828 462 9.376833516e-39
-322.0807967 -36.20746014 463 9.376833516e-39
-320.3576966 -36.28566199 464 9.376833516e-39
-318.6241708 -36.36386385 465 9.376833516e-39
-316.200219 -36.36386385 465 9.376833516e-39
-313.7762671 -36.36386385 465 9.376833516e-39
-312.0218902 -36.44206571 466 9.376833516e-39
-309.5927255 -36.44206571 466 9.376833516e-39
-307.1635609 -36.44206571 466 9.376833516e-39
-304.7343963 -36.44206571 466 9.376833516e-39
-302.9539553 -36.52026757 467 9.376833516e-39
-300.5195779 -36.52026757 467 9.376833516e-39
-298.0852004 -36.52026757 467 9.376833516e-39
-295.650823 -36.52026757 467 9.376833516e-39
-293.844318 -36.59846942 468 9.376833516e-39
-291.4047278 -36.59846942 468 9.376833516e-39
-289.5825844 -36.67667128 469 9.376833516e-39
-287.1377814 -36.67667128 469 9.376833516e-39
-285.9070209 -36.833075 471 9.376833516e-39
-284.0536008 -36.91127686 472 9.376833516e-39
-281.5931593 -36.91127686 472 9.376833516e-39
-279.1327179 -36.91127686 472 9.376833516e-39
-276.6722765 -36.91127686 472 9.376833516e-39
-274.7927923 -36.98947871 473 9.376833516e-39
-272.3271381 -36.98947871 473 9.376833516e-39
-270.4320155 -37.06768057 474 9.376833516e-39
-268.5264674 -37.14588243 475 9.376833516e-39
-266.0503876 -37.14588243 475 9.376833516e-39
-263.5743077 -37.14588243 475 9.376833516e-39
-261.6479084 -37.22408429 476 9.376833516e-39
-259.7110834 -37.30228614 477 9.376833516e-39
-257.7638329 -37.380488 478 9.376833516e-39
-255.2721146 -37.380488 478 9.376833516e-39
